# .PCD v.7 - Point Cloud Data file format
VERSION .7
FIELDS x y z
SIZE 4 4 4
TYPE F F F
COUNT 1 1 1
WIDTH 1678
HEIGHT 1
VIEWPOINT 0 0 0 1 0 0 0
POINTS 1678
DATA ascii
15.5863 5.03262 75.744598
15.8446 4.9767499 75.762703
15.9757 4.7305598 75.772598
15.3977 4.64715 76.335701
15.7192 4.8811898 75.976799
15.0437 4.4527798 76.367798
14.8091 4.3117099 76.218399
14.6907 4.22895 75.964996
14.7262 4.28333 75.592697
14.8141 4.3484802 75.374199
14.8891 4.4033098 75.218903
15.0211 4.5500202 74.911499
15.505 4.8488998 76.117401
15.4779 4.85745 76.098999
15.4369 4.8843198 76.090202
15.3397 4.8954902 76.063301
15.1668 4.8636098 76.010399
15.5974 4.7800002 76.170898
14.9822 4.7908401 75.927803
14.7982 4.6571598 75.848
15.6812 4.5364299 76.205002
14.6881 4.4932699 75.789497
14.6683 4.4207902 75.775902
14.6612 4.3737202 75.7593
14.6904 4.2423701 75.741699
14.6561 4.4335599 75.9963
14.6939 4.3671799 76.015404
14.8229 4.4720101 76.116898
15.0201 4.5941501 76.2164
15.274 4.6908302 76.281197
15.2746 4.7741499 76.277496
15.1207 4.7687402 76.226997
14.9391 4.7007899 76.154602
14.7534 4.5807099 76.0597
14.9467 4.9004598 75.213997
14.9601 4.8606501 75.297096
14.9572 4.8475399 75.337502
15.7744 5.1458902 75.552803
15.8507 5.2474999 75.404602
15.9647 5.4030099 75.1567
15.6919 5.04182 75.742401
16.328699 5.2195301 75.092598
16.3699 5.2575898 75.0149
15.3912 5.4014802 74.814201
15.4279 5.45648 74.713997
15.6857 5.4827499 74.945503
15.7344 5.5426002 74.848297
16.1045 5.42974 75.0672
16.129101 5.4881701 74.969597
15.9943 4.5096598 74.722397
16.0273 4.5738902 74.6483
16.327101 4.8608699 74.991203
16.349701 4.92098 74.928802
15.2135 5.2669001 74.698196
15.2532 5.3169098 74.605003
15.1168 5.0399899 74.579002
15.162 5.08216 74.492897
15.2552 4.66713 74.483002
15.2975 4.6973801 74.403603
15.5591 4.4194999 74.508301
15.6 4.4539499 74.431396
14.6515 4.3713002 75.970901
14.7564 4.4108901 76.046204
14.6904 4.3555298 75.9897
14.6619 4.38342 76.020897
14.655 4.3754201 75.996101
14.6927 4.5102201 75.997498
14.656 4.4344401 75.9739
14.6528 4.40061 75.864304
14.6492 4.3763099 75.931297
14.7105 4.54037 75.8993
14.867 4.69877 75.976898
14.778 4.6262498 75.935997
14.7545 4.6052999 75.719902
14.7299 4.57127 75.813202
14.669 4.4612999 75.874702
14.6985 4.5199099 75.962097
15.424 4.8176098 76.187202
15.5076 4.90693 76.001801
15.469 4.8656998 76.097603
15.3897 4.8462701 76.169502
15.3298 4.7533998 76.282997
15.3708 4.7748899 76.252403
15.4307 4.8015699 76.198502
15.4191 4.7991199 76.197701
15.1687 4.9919701 75.510498
15.133 4.93852 75.6856
15.1498 4.96666 75.598297
15.357 5.0408702 75.625801
15.2648 5.0278401 75.566597
15.1941 5.0227299 75.402298
15.187 5.0121598 75.433502
14.9968 4.8777099 75.424698
15.0775 4.9383602 75.4645
15.4671 5.0283399 75.716499
15.4333 5.0388999 75.677597
15.3887 5.0718699 75.541397
15.3771 5.0609999 75.565002
15.3176 4.9884 75.776199
15.3392 5.0164099 75.699303
15.5122 5.0352602 75.687798
15.4968 5.03193 75.699303
15.467 4.99018 75.824699
15.4768 5.0118699 75.761299
15.2419 4.8443198 76.131401
15.339 4.85288 76.155602
15.4268 4.9319501 75.986702
15.3943 4.8963599 76.074997
14.702 4.4201498 76.066597
14.7176 4.44068 76.0439
14.8993 4.5538101 76.170303
14.8109 4.4920902 76.110001
14.7465 4.4134402 76.069099
14.75 4.4102402 76.0588
14.878 4.5511599 76.215897
14.8848 4.5660501 76.187798
15.1723 4.65274 76.240402
15.0137 4.6121302 76.217903
14.9001 4.5313501 76.183601
14.9083 4.5353198 76.170998
15.1519 4.6470599 76.2649
15.1652 4.6503301 76.254303
15.1533 4.6806698 76.2799
15.1597 4.6893702 76.255699
15.3012 4.6992798 76.270798
15.2138 4.79176 76.234497
15.2945 4.7873101 76.261299
15.2798 4.7262402 76.304497
15.3051 4.7392402 76.295097
14.6469 4.3641601 75.866203
14.6543 4.3800802 75.867996
14.6959 4.4819002 75.687798
14.6697 4.4398499 75.776398
14.8386 4.5416999 76.247704
14.8762 4.5248499 76.211098
14.8588 4.52388 76.231499
15.0412 4.6377702 76.323799
14.9419 4.59515 76.2967
14.8279 4.5991302 76.200203
14.827 4.5743899 76.233101
14.6965 4.43396 76.112602
14.7528 4.4861398 76.183998
15.185 4.6908102 76.327202
15.1167 4.6676898 76.332397
15.0241 4.6932001 76.281998
15.0266 4.6685901 76.310799
15.1177 4.6366901 76.294998
15.0793 4.6272898 76.311897
14.8662 4.7392998 75.4254
14.8915 4.7718701 75.4058
14.8515 4.7079601 75.379303
14.8537 4.7160401 75.393402
14.8109 4.6674099 75.541901
14.8411 4.7048802 75.464203
15.0576 4.7970901 76.063599
14.9634 4.7554698 76.020302
14.9083 4.7674198 75.786201
14.8857 4.7321401 75.886299
14.8453 4.6575198 76.083099
14.8528 4.6736002 76.044296
15.1482 4.82514 76.101799
15.2274 4.8113499 76.199402
15.2765 4.92311 75.945396
15.2564 4.8834801 76.041801
15.0302 4.7298698 76.219902
15.0259 4.7143798 76.2481
14.9272 4.6507301 76.249603
15.1745 4.7421298 76.304703
15.1056 4.7230101 76.298897
14.8366 4.6359401 76.131699
14.8318 4.62078 76.162697
14.6878 4.4864101 76.089203
14.7433 4.54176 76.143997
14.6896 4.5016999 76.041496
14.6901 4.4969802 76.068001
14.6859 4.4684 76.106796
15.174 4.72335 76.320396
15.1943 4.7701302 76.270103
15.1798 4.7561598 76.287399
14.9243 4.8104901 75.314499
14.89 4.7658601 75.337898
14.8358 4.71172 75.352798
14.8479 4.7111602 75.371498
14.7645 4.5736198 75.517998
14.8081 4.6411901 75.438904
15.2915 5.0632801 75.464798
15.195 5.0521798 75.368301
15.1944 5.0332198 75.389503
15.0242 4.9085598 75.321198
15.1028 4.9664798 75.354698
15.4662 5.0595598 75.617203
15.4032 5.10605 75.5158
15.3945 5.0843201 75.531799
15.5348 5.0573702 75.673203
15.5216 5.0431399 75.6828
15.5371 4.9731002 75.831299
15.5369 5.0055399 75.7584
15.018 4.90132 75.353203
14.9319 4.8172302 75.391998
14.9513 4.8235002 75.5961
14.9713 4.8477302 75.507004
15.0166 4.9309101 75.281303
15.0209 4.91573 75.307098
14.9643 4.85465 75.3106
15.0371 4.75176 76.170998
15.0442 4.7686701 76.132103
15.097 4.8727999 75.870499
15.0758 4.8337898 75.970497
14.6593 4.2901702 75.852798
14.6485 4.33395 75.858101
14.6617 4.3563199 75.958504
14.6858 4.45543 75.681396
14.6615 4.4081402 75.769699
14.913 4.8277898 75.2752
14.8814 4.7814298 75.301598
14.8073 4.6567898 75.299004
14.8253 4.69561 75.328697
14.7539 4.5631599 75.506401
14.796 4.6357899 75.416801
14.9634 4.2671199 76.314796
14.8882 4.46069 76.279701
14.9138 4.3747902 76.307404
14.788 4.1626201 76.112602
14.8632 4.2098098 76.225304
15.0918 4.1202698 76.221802
15.0158 4.19031 76.288399
15.2672 4.4485202 76.393097
15.0959 4.3442898 76.380096
14.9304 4.04951 76.086998
14.9803 4.0738802 76.145699
15.2913 4.02632 76.0392
15.1792 4.0583301 76.139
15.3186 4.2588501 76.324402
15.2145 4.18929 76.295898
14.75 4.1406398 75.846802
14.7477 4.1364799 75.978798
14.8443 4.1024899 76.105904
14.7102 4.33111 76.094902
14.731 4.26016 76.105202
15.5542 4.3121901 76.228203
15.4241 4.2909999 76.299202
15.299 4.36234 76.3778
15.7317 4.38413 76.085602
15.6702 4.3575501 76.1492
15.5597 4.6186299 76.288902
15.5783 4.4887099 76.285797
15.4584 4.1433201 76.132698
16.1793 5.1011 75.352097
16.272499 5.1733799 75.195503
16.000299 5.2846098 75.313103
16.091 5.2155099 75.337997
15.9918 4.9421201 75.655701
16.0753 5.0198598 75.520401
16.1922 4.7213302 75.258598
16.2248 4.9363399 75.333603
15.645 5.0880098 75.651497
15.5709 5.0756898 75.660698
15.4874 5.0891099 75.594704
15.5709 4.9805298 75.8284
15.5644 5.0225 75.748596
15.2965 5.0988202 75.435097
15.2311 5.1507602 75.233299
15.2032 5.0900102 75.322304
15.099 4.99231 75.319199
15.4651 5.21346 75.389999
15.3363 5.1974802 75.311096
15.3146 5.2941599 75.002197
15.2724 5.2256398 75.117699
15.033 5.0144901 75.1325
15.1325 5.0901599 75.174896
15.4697 4.7710199 76.228996
15.4458 4.7909999 76.208702
15.5272 4.9015698 76.007401
15.4814 4.8572502 76.103401
15.3404 4.7440701 76.264099
15.8943 5.1718998 75.491997
15.8188 5.0869598 75.634697
15.8654 5.1428499 75.542198
15.9223 5.2078199 75.440804
15.7103 5.2055101 75.473
15.8046 5.19311 75.481796
15.4223 5.14749 75.476799
15.5968 5.2082801 75.449699
15.5858 5.3635602 75.143402
15.5237 5.29427 75.2696
14.897 4.7878399 75.065399
14.8456 4.71736 75.201202
14.8149 4.4756598 75.2929
14.8008 4.5750999 75.292
14.7727 4.5938101 75.384804
15.6934 4.9793301 75.8452
15.7526 5.0299001 75.7444
15.9133 5.0391698 75.642601
15.7348 5.0924902 75.643402
14.913 4.27213 75.318497
15.0099 4.35392 75.109802
14.9412 4.29492 75.255898
14.8369 4.2130499 75.501602
14.8864 4.2501302 75.376999
14.849 4.3717198 75.2994
15.1499 4.5318398 74.739799
15.0849 4.4367499 74.922798
15.2543 4.1595201 75.187103
15.1016 4.24546 75.147003
14.9166 4.5724602 75.059502
14.9558 4.46664 75.081001
15.0856 4.0342302 75.576698
15.5212 4.0701299 75.724197
15.2814 4.00067 75.638298
14.9605 4.01162 75.897499
15.014 4.0072198 75.753098
14.9361 4.1226902 75.534599
15.1694 4.0895901 75.382401
15.7078 4.2108498 75.348396
15.4587 4.1333799 75.2491
15.4256 4.3043599 74.7929
15.3403 4.23208 74.990402
15.8593 4.3602099 75.001801
15.7824 4.2859998 75.178101
16.0315 4.5841899 75.576797
15.9247 4.3713999 75.466301
15.6264 4.13691 75.524902
15.8785 4.45296 75.875603
15.7476 4.2349401 75.8162
15.4087 4.03022 75.9021
15.8561 4.8186302 75.892303
15.9191 4.8758101 75.773697
16.044901 4.7918301 75.647598
14.8347 4.0722299 75.860001
15.1111 3.9788401 75.956001
14.9255 4.0254102 76.010101
14.682 4.2301998 75.847
14.7733 4.1682301 75.686699
14.7599 4.1570101 75.740997
15.4364 4.5499201 76.357002
15.1877 4.6168199 76.341003
15.2179 4.5486202 76.3787
15.5165 4.7181001 76.262802
15.7291 4.72298 76.110703
15.6525 4.67098 76.203598
16.200001 4.6725702 74.875397
15.9324 4.4362602 74.842003
15.7571 4.4149799 74.588501
15.9077 4.6721802 75.903198
15.8336 4.4303999 75.956902
15.9607 4.5194201 75.718102
14.7765 4.4846401 76.149399
14.7 4.3938398 76.077797
14.7016 4.3699498 76.085701
14.8791 4.5208702 76.240601
15.0058 4.6191602 76.260101
15.1664 4.6767602 76.291801
15.1729 4.6582198 76.308998
15.0156 4.9624901 75.231003
14.9545 4.8716102 75.2705
15.1225 5.1564002 74.882103
15.0732 5.0839601 75.002403
14.932 4.90517 75.102402
14.9584 4.94524 75.112297
16.369101 5.0542698 75.066498
16.273701 4.7932301 75.098
16.233101 5.3472099 75.085297
15.9194 5.4818301 75.041496
15.9851 5.4711199 75.053596
16.068199 5.3655701 75.174698
15.8435 5.4911199 75.0158
15.5131 5.4535899 74.874397
15.6398 5.4239702 75.035103
15.2956 5.3407998 74.757004
15.3565 5.3501902 74.8983
15.148 5.17869 74.644699
15.1714 5.2199998 74.779404
15.1711 4.6616702 76.311996
15.2419 4.7100201 76.314301
14.9811 4.5799198 76.260101
15.1368 4.64218 76.278
14.7327 4.4171801 76.094299
14.7933 4.4698601 76.153801
14.8896 4.5292802 76.1959
14.7177 4.4177499 76.105904
14.7411 4.41605 76.082199
14.6728 4.401 76.057198
15.2523 4.7616 76.290703
15.2052 4.78088 76.252899
15.1162 4.75776 76.247704
15.0337 4.7411399 76.1959
14.9345 4.6886902 76.180801
14.8415 4.64676 76.107498
14.7498 4.57165 76.081802
14.7574 4.5892901 76.037003
14.6897 4.50525 76.018898
14.8954 4.6777 75.051102
14.9085 4.8502002 75.086098
15.0131 4.9366202 74.790901
14.9525 4.8643699 74.923203
15.3939 4.5104098 74.475304
15.2076 4.6171899 74.587898
15.1597 4.8558502 74.5233
15.5021 4.3706102 74.623398
15.0723 4.99404 74.669899
15.8324 5.3550601 75.252502
15.9114 5.3245802 75.283699
15.7333 5.3710098 75.206802
15.4305 5.33847 75.073097
15.2187 5.2333498 74.938202
15.0456 5.0649199 74.8368
15.0393 4.7224698 74.7612
15.0231 4.7913098 74.767097
15.0719 4.6515598 74.756599
15.2671 4.3968101 74.751198
15.6228 4.2848902 74.873596
16.0748 4.5107799 75.142502
16.1057 4.6487799 75.430397
14.7895 4.1821299 75.628304
14.7416 4.41431 75.478203
14.7677 4.3133898 75.480904
14.7404 4.4940701 75.478996
14.7446 4.5520802 75.484703
14.7144 4.5071802 75.594002
14.7626 4.57163 75.515602
14.7278 4.5288401 75.602997
14.7691 4.5933099 75.533897
14.7825 4.6375699 75.6269
14.8713 4.7470298 75.561699
14.9313 4.79849 75.688004
15.0405 4.8892398 75.637703
15.1163 4.90803 75.774101
15.2262 4.9707398 75.734001
15.298 4.9583702 75.856598
15.4019 4.9957199 75.805199
15.4509 4.9635301 75.899101
15.5144 4.9800301 75.8312
15.5312 4.9422302 75.909203
15.5476 4.97049 75.827103
15.5566 4.9401898 75.910599
15.6184 4.9984698 75.824799
15.594 4.9931998 75.824097
15.7941 4.7660999 76.004601
15.7775 4.9268498 75.874001
15.6525 4.99508 75.830299
15.5893 4.8846898 76.038902
15.6397 4.93261 75.940598
15.5334 4.8317499 76.1371
15.3632 4.7011399 76.303398
15.0167 4.53509 76.329803
14.7838 4.3936501 76.200302
14.6721 4.29355 75.964203
14.6843 4.34758 75.673599
14.6686 4.3178101 75.750298
14.7065 4.3817401 75.581596
14.7808 4.4465699 75.379402
14.8562 4.51436 75.198898
14.9787 4.6391702 74.910797
15.7682 4.5827098 76.120201
15.6608 4.8320999 76.076202
15.5579 4.8991899 76.020302
15.519 4.9002399 76.0028
15.4761 4.9202499 75.997597
15.3594 4.9338899 75.970802
15.1879 4.9030299 75.911697
15.0023 4.8274698 75.827003
14.8216 4.6909699 75.750298
14.7135 4.5295401 75.698196
14.6931 4.4665699 75.686302
14.6813 4.4183698 75.674202
14.7046 4.2588 75.673401
15.2488 4.6823101 76.286301
15.0093 4.58957 76.230499
14.8131 4.4699702 76.125801
14.7 4.3770199 76.036102
14.6589 4.4367199 76.020203
15.1259 4.7789302 76.206299
14.9431 4.7116199 76.128998
14.9108 4.84727 75.227402
14.9211 4.8165302 75.301399
14.924 4.8104501 75.340202
15.8871 5.4224601 75.142097
15.7668 5.2760201 75.376404
15.6679 5.1442199 75.563301
15.635 5.0438499 75.737297
15.5565 4.97539 75.830101
14.9604 4.9078999 74.933998
-7.6142201 -1.06717 79.736298
-7.7746401 -1.8896101 79.480301
-7.48453 -1.16993 79.5896
-7.6430001 -2.0262201 79.303001
-7.2755399 0.59446198 80.3256
-7.57125 -0.27566299 80.093803
-7.1907902 0.50646001 80.328201
-7.4343801 -0.30846101 80.090897
-7.0884399 0.456844 80.278198
-7.29707 -0.34760201 79.953499
-6.8979602 1.39504 80.494797
-6.4404702 5.5966301 81.383598
-6.4496102 5.1371899 81.321602
-6.46769 4.7116199 81.256699
-6.5978899 3.09958 80.810402
-6.5338702 3.7369001 80.9758
-6.4857001 4.3256102 81.158997
-6.6849298 2.43083 80.662003
-9.3907299 -6.2040901 88.269699
-9.04667 -6.1960201 87.170898
-7.8596101 -2.81236 79.253098
-8.1709604 -3.82233 79.451599
-8.4487 -4.7577701 80.0867
-8.5691996 -5.3940802 81.409798
-8.5699196 -5.8548102 83.054901
-8.6282101 -6.1874599 84.774597
-6.9951301 1.50648 80.5131
-19.8591 6.21419 76.475403
-20.5042 5.1303802 76.372002
-21.0968 3.61812 76.205704
-20.5527 4.8519101 74.409599
-21.098801 3.5650201 78.957397
-20.697599 4.4696898 85.027702
-21.2666 1.57125 83.489403
-21.210199 1.50045 85.190598
-21.450899 1.64167 80.8666
-20.636999 4.4751801 87.583603
-20.5832 4.9883599 81.382202
-21.0979 3.4528699 81.181702
-19.238899 7.3161201 78.249496
-15.8563 9.6300097 76.285004
-15.8378 9.7128096 77.288902
-15.1763 -7.0536599 77.720703
-15.0026 -6.93295 79.240898
-13.4991 -6.6647902 78.6577
-13.7007 -6.7933602 77.271698
-12.1907 -6.2898502 78.0989
-12.451 -6.4555402 76.8843
-10.9095 -5.6658902 77.439796
-11.059 -5.76932 76.310501
-16.009899 -6.71808 81.355103
-16.242001 -6.8699999 79.661301
-18.713301 -5.4641399 82.930702
-21.1887 -0.58216202 85.049896
-20.544201 -2.4414401 86.377602
-8.7685499 6.7290802 75.421204
-7.8011599 5.11134 75.048698
-9.0156698 -4.0904899 75.529602
-6.9035201 0.88099903 74.473701
-7.2885499 -1.03377 74.486397
-7.3589501 -1.10241 76.001602
-7.1063299 0.67915499 76.049698
-8.0302296 -2.70731 74.709297
-7.06565 3.19136 74.6381
-7.71278 5.1655002 73.320702
-10.0767 7.96418 76.779999
-9.9589005 8.1438904 75.701202
-11.2527 8.9350204 76.818298
-11.173 9.0702896 75.932701
-12.469 9.5492802 76.032898
-18.9842 -5.39818 76.547699
-17.8368 -6.3699002 76.283501
-20.2864 -3.79426 74.981598
-20.218399 -3.9216399 76.928001
-21.0937 -2.0251 75.353104
-21.068199 -2.1410201 77.310204
-16.4289 -7.04035 76.058899
-15.4055 -7.13902 75.938698
-13.0201 -6.6858602 73.587097
-13.9308 -6.9598398 75.684601
-12.7803 -6.6220002 75.491203
-11.2284 -5.8256402 75.2509
-9.0138302 -3.9791 73.158096
-10.0642 -4.98666 75.018799
-9.026 -4.0816102 74.818604
-6.9124198 0.83959901 72.871902
-14.816 9.7608004 76.124901
-13.3603 9.6831999 76.000397
-21.519699 1.70289 78.460098
-21.512501 -0.095659003 77.709999
-21.4998 -0.038929999 75.707397
-21.4596 1.80742 75.9161
-21.4002 1.75286 74.104103
-18.8866 -5.4709301 78.650002
-17.737101 -6.3161302 78.304703
-18.780899 -5.4881701 80.702499
-17.651501 -6.2070498 80.239998
-20.1224 -4.01965 79.0952
-19.936501 -4.15202 81.249496
-19.799601 -4.2168598 83.700798
-20.9713 -2.2755599 79.495697
-20.817499 -2.39186 81.871399
-20.7311 -2.54057 84.481499
-16.3836 -6.93119 77.938202
-21.276501 -0.49337101 82.944397
-21.338699 -0.26782399 79.883102
-21.005199 1.62558 87.761002
-7.87047 4.6385798 76.491699
-8.8881397 6.2729802 76.713997
-8.0373201 -2.8382699 76.195801
-8.9150801 -4.2365499 80.401398
-9.2838001 -5.3631902 83.397598
-8.9517803 -4.1274199 76.592499
-9.5520697 -5.6244402 85.088097
-13.3278 -6.6191902 80.012199
-17.1639 8.9610205 74.662804
-7.3010101 -1.01097 72.866699
-20.274099 -3.7660401 73.776398
-19.9062 5.8780398 74.413101
-19.3571 6.9164 74.431396
-12.3827 9.4096098 74.446503
-9.7954998 8.2095499 74.0961
-8.6503696 6.9574399 73.7024
-11.504 -5.8530898 73.376404
-15.4399 -7.1587801 73.841103
-16.423401 -7.0072699 73.900101
-21.501499 0.039671998 73.977898
-21.052799 3.4433601 74.252602
-8.4784899 -3.2873199 79.8368
-9.1654902 -4.9265299 81.597
-20.098101 6.03195 81.804497
-20.2906 5.6051302 83.594803
-20.3671 5.4905901 84.908096
-20.9664 -0.28438899 87.150002
-19.687901 -4.1827502 85.486
-14.7649 -6.7960801 80.733704
-11.9121 -6.1929998 79.276802
-7.17132 2.8547599 76.151398
-12.5047 9.5492897 76.934097
-13.7415 9.8410702 77.020897
-14.8959 9.8913803 77.146599
-13.7901 -5.1254501 94.491501
-13.1604 -5.3772702 93.540298
-13.7675 -5.2580299 92.826401
-14.2235 -5.0215998 93.882004
-13.2733 -5.2162199 95.297699
-12.5464 -5.4980602 94.140099
-11.6897 -5.7386398 92.836403
-11.1576 -5.83637 90.304703
-7.8633199 -0.78936499 79.652
-8.0425701 -1.64837 79.628403
-7.4506698 0.651519 79.556999
-7.7305398 -0.27675101 79.679298
-6.7182102 5.37884 80.385002
-6.8158698 4.52352 80.263901
-6.9131398 3.6726699 80.209801
-7.06775 2.94224 79.814796
-6.8495798 4.22611 80.248398
-14.3894 -4.68506 96.444504
-13.93 -4.9070702 96.064003
-14.2649 -4.8973198 95.224998
-14.7249 -4.6351199 95.834396
-14.6799 -4.7662902 94.615402
-15.0931 -4.5164499 95.295601
-9.6315403 -4.79772 81.577599
-10.1366 -5.17873 83.2826
-8.5774698 -3.12569 79.940903
-9.1119699 -4.0159702 80.548401
-8.2238398 -2.2927799 79.663902
-12.3763 -5.6132202 92.1539
-12.3194 -5.5802398 89.394096
-13.0695 -5.44768 91.441704
-11.4303 -5.6262202 87.228104
-10.667 -5.5174098 85.029198
-5.8498998 10.6679 87.114502
-6.0258799 10.2168 85.280602
-6.1681199 9.7425699 84.045502
-6.3295298 9.0155602 82.7174
-6.5047102 8.1073103 81.446999
-6.60184 7.0750499 80.890503
-7.2291999 1.7145 79.657303
-16.010401 -5.0633998 91.092697
-15.575 -5.3393998 90.378098
-16.516001 -5.4577999 89.002403
-15.2034 -4.96984 92.371803
-14.7337 -5.2568598 91.573898
-7.7293601 -0.97626001 78.600403
-8.1217003 -2.3151 78.729401
-8.0311604 -1.781 79.285103
-7.7818899 -0.589059 79.239899
-7.4774699 0.53316897 79.190498
-6.9998999 4.2430201 79.887299
-19.807699 6.6888099 82.537598
-19.3046 7.50984 81.695999
-17.999001 8.9060602 79.419098
-17.2939 9.39217 78.980499
-15.8623 10.0149 78.384201
-10.0406 7.8232799 77.863098
-11.246 9.0757904 77.781403
-10.0907 7.7451301 77.651901
-8.9800901 6.1606698 77.505096
-8.8808899 6.1038899 78.1436
-7.8418102 4.29985 77.441803
-7.7086902 4.1482801 78.306999
-7.1531701 1.25614 77.167999
-7.2230802 1.32142 77.930603
-7.2765398 2.59373 77.925499
-7.2323298 2.6642301 77.2509
-7.4261398 0.378243 78.524101
-7.2881298 1.36597 78.4338
-7.3383498 0.31641001 77.954102
-17.7934 5.66817 97.307098
-18.055 4.5867701 97.081299
-18.687 4.3871799 95.266403
-18.4265 5.8179698 95.3946
-18.397699 -2.24264 94.628601
-17.846001 -3.47756 93.406303
-18.555099 -2.30936 93.877296
-18.927299 -1.00999 94.378601
-18.680401 -0.97355503 95.423401
-19.127001 0.182873 94.795403
-18.776699 0.222128 95.819199
-19.0497 1.4119101 95.094902
-18.6849 1.4857 96.189003
-18.912701 2.9119599 95.1222
-18.382 3.0502501 96.684402
-11.2482 -5.6795101 82.003899
-11.074 -5.5844498 82.342697
-10.2128 -5.1339502 80.819801
-9.8816204 -4.9001698 81.345703
-10.6513 -5.4267602 82.799698
-11.4515 -5.8694401 81.228401
-10.4483 -5.37747 80.297501
-19.2125 4.4726 93.314697
-19.3972 3.02391 93.506203
-19.681999 3.1278901 92.571098
-19.4743 4.5753198 92.386002
-20.5201 1.80049 90.252502
-20.027901 4.6620102 90.476898
-18.979 5.9063401 93.1931
-18.4408 7.1236801 94.273201
-17.688499 8.09793 95.637299
-17.1199 -5.9257998 85.348297
-18.4165 -5.1922598 86.530701
-19.492701 -3.9551001 87.552101
-20.2479 -2.2943499 88.312103
-20.523701 -0.87582302 89.476402
-20.5751 0.378039 90.055801
-19.977301 5.7449198 89.343697
-18.8696 7.2873902 92.1381
-18.202801 8.4120798 93.196701
-17.562799 9.4395304 93.220703
-19.371901 7.1009102 89.998398
-19.4953 0.21912999 93.6297
-19.4478 1.46811 93.842598
-15.6844 -4.5534902 94.162102
-15.7408 -4.3948202 94.846199
-16.553301 -4.12923 94.4701
-16.3839 -4.0548902 95.056602
-17.301701 -3.3719001 95.274803
-17.016199 -3.3373201 95.945099
-17.8937 -2.1316199 96.072502
-17.629 -2.0984499 96.958
-5.9971399 11.7847 89.886597
-6.3670402 12.0468 90.693001
-7.1378198 12.669 88.226997
-6.9898601 12.1233 91.830299
-10.5189 13.8556 88.760399
-8.6631498 10.8716 97.427101
-8.8294601 11.1197 96.761597
-10.6249 11.0033 97.190598
-10.0614 11.3836 96.189201
-8.4114103 11.9768 94.003899
-9.0814695 12.8604 92.133102
-7.5578499 -1.20303 77.141998
-7.2277999 0.38703701 77.114403
-8.0232496 -2.76495 77.286697
-7.2790999 2.6368501 78.382103
-7.1986699 4.2456999 79.452202
-7.2264299 5.5927401 79.539001
-7.4878502 5.7227402 79.154297
-7.3252902 4.1856699 79.078003
-7.6732602 5.2529998 78.811096
-7.7628798 4.6729898 78.536102
-7.5100999 4.0619202 78.6362
-7.5625701 7.2463002 79.448196
-7.83108 6.7106199 78.990898
-8.08183 6.2506299 78.645103
-8.4600401 5.9377699 78.374001
-6.9795399 7.7855201 80.346802
-7.2576098 8.2937298 80.203796
-7.1363101 7.0810199 79.934898
-6.9565802 9.1801205 81.094704
-7.7712898 8.9868698 80.110001
-8.1456804 8.2060699 79.333603
-8.4174805 7.68538 78.867203
-8.6882095 7.1401 78.468498
-8.8794403 6.7414298 78.282402
-8.2665596 10.6547 81.173897
-8.7265501 10.0359 80.2108
-9.1354704 9.3022604 79.306
-9.4354696 8.7237101 78.7258
-9.6810799 8.3332195 78.356796
-6.4141302 12.0858 87.718498
-6.83181 12.1766 85.724899
-8.1369305 12.6367 84.511299
-7.1346302 11.8107 84.264999
-8.7543402 12.2007 82.921501
-7.64253 11.3128 82.635498
-9.4329596 11.6737 81.555099
-9.9562902 11.1526 80.547699
-10.4128 10.4214 79.489998
-9.3613005 13.2747 84.933899
-10.03 12.9979 83.591797
-10.6941 12.4964 82.306198
-8.8448095 -4.0041199 77.6717
-9.52003 -4.7175798 79.252602
-8.7415705 -3.7599299 78.582298
-9.3852501 -4.4424 79.864799
-8.6771002 -3.4849 79.166603
-9.1753302 -4.1524 80.348396
-8.6128397 -3.2049 79.708504
-7.6585398 -1.16566 77.958298
-8.2083197 -2.2686601 79.344101
-8.1030903 -2.61884 78.093803
-7.2576499 2.56813 78.829697
-7.2974901 1.45669 79.0411
-15.6682 -4.6771002 93.395103
-16.742701 -4.1676698 93.588699
-15.7144 -4.7768602 92.736198
-17.008499 -5.72404 87.260597
-18.1462 -4.9042902 88.620499
-17.5655 -4.61308 90.5457
-17.0471 -4.35887 92.388
-19.050501 -3.73189 89.662903
-18.448 -3.5093501 91.702103
-17.5418 -3.35518 94.569
-19.4513 -2.27795 91.145401
-18.9552 -2.2797899 92.617203
-13.9475 -5.9317198 87.548401
-14.7556 -5.6738701 88.992897
-14.0023 -5.5375199 90.292297
-13.1781 -5.7186198 88.587997
-15.4473 -5.9028201 87.5327
-13.0526 -5.9387898 86.000504
-12.2987 -5.7779398 86.755997
-13.4604 10.2205 98.194702
-14.5518 9.8392696 98.024696
-14.6209 10.003 97.584297
-13.2908 10.5558 97.448502
-15.3337 10.59 95.569504
-14.3061 11.1283 95.418404
-16.000401 11.1344 92.924301
-14.9901 11.7653 93.022697
-16.8062 11.2751 90.3517
-15.7491 12.332 90.139099
-16.4027 12.2711 88.266602
-11.8765 10.9076 97.1996
-14.7028 12.7367 90.802101
-15.4298 12.8475 88.709801
-11.4392 11.5523 95.717102
-12.3262 12.3445 93.659897
-13.309 13.0643 91.3078
-14.1791 13.3072 89.174599
-11.6908 13.0912 91.972099
-11.1257 13.603 90.357697
-9.1889496 10.7417 97.869698
-10.1723 10.7739 97.837997
-11.1435 10.7228 97.8638
-11.9715 10.566 98.0485
-12.2586 10.3773 98.468102
-9.2761202 10.5626 98.334099
-9.89112 10.5928 98.283501
-10.5465 10.5684 98.300697
-11.0678 10.4936 98.424797
-11.2994 10.3941 98.682701
-19.864901 0.30559099 92.391998
-19.718901 -0.974581 91.841301
-19.2815 -1.03388 93.164497
-18.332199 0.41525799 97.118698
-18.2344 -0.93264902 96.707497
-18.2108 1.74111 97.461899
-19.823999 1.60632 92.6698
-17.878099 3.3599701 97.913696
-17.096399 7.5483298 97.615997
-16.4522 8.4839897 97.718697
-17.0597 9.0633297 95.715401
-15.5928 9.2982597 97.718201
-16.25 9.8996897 95.694397
-16.7927 10.3539 93.134499
-12.4519 9.7381897 77.860497
-13.6735 10.0543 77.9422
-14.8909 10.1791 78.124603
-9.9158201 8.1237402 78.099602
-10.7001 9.8751202 78.840797
-10.9451 9.4996901 78.397301
-11.1407 9.1510601 78.025803
-11.1899 12.025 81.254402
-11.7041 11.2911 80.014397
-11.9341 10.6839 79.235001
-12.1649 10.1612 78.628998
-12.3668 9.91084 78.222198
-14.5194 -6.6356802 82.068604
-15.6671 -6.1244998 85.9664
-14.4112 -6.0873899 86.097198
-12.748 -6.29879 82.335197
-12.5321 -6.09162 83.383698
-12.0788 -5.88831 84.091797
-11.3716 -5.7693701 84.589302
-13.5433 -6.23172 84.936501
-15.5088 12.6483 84.473396
-17.316999 9.6180201 79.806099
-15.7782 11.9107 82.418602
-15.8165 11.1819 80.843498
-15.8875 10.6554 79.792702
-15.905 10.3005 79.061897
-13.4153 13.3222 84.255898
-13.7504 12.8993 83.118599
-14.3186 12.1982 81.472504
-14.8185 11.4066 80.309097
-14.8603 10.8409 79.396004
-14.9015 10.4833 78.742104
-11.4797 13.5035 84.552902
-11.9985 13.1167 83.349701
-12.417 12.6748 82.212303
-12.9635 11.9222 80.783997
-13.2681 11.2295 79.757599
-13.4652 10.6961 79.017899
-13.6099 10.3188 78.456299
-17.9806 0.61210102 98.365303
-17.919001 -0.94014198 97.682198
-5.8227701 11.2302 88.119301
-5.9137602 11.1473 87.289299
-6.1116199 11.7883 88.385696
-6.7859001 7.3912501 80.542603
-6.9451699 5.4510698 79.976898
-6.4236598 9.3106403 82.572304
-6.7333498 8.72929 81.182701
-6.1318998 10.9287 85.401604
-6.2937498 10.5153 84.178398
-6.5925002 9.9740601 82.571404
-7.1431298 2.86058 79.425102
-11.9015 -5.6112499 89.631302
-11.5017 -5.71843 90.011902
-10.9972 -5.5963702 87.381104
-10.3429 -5.76159 87.342201
-9.9260101 -5.4759402 85.1623
-10.2375 -5.4614601 85.124199
-9.6062098 -5.1785998 83.472099
-9.85322 -5.1321702 83.431198
-9.47787 -4.7497501 81.679802
-9.3385696 -4.7254601 81.714897
-9.00383 -4.0755701 80.5103
-9.0580397 -3.9825301 80.596603
-8.5592899 -3.1408899 79.970596
-8.52707 -3.2209101 79.905602
-8.1923399 -2.3857999 79.701202
-8.2105503 -2.3364899 79.706497
-7.9699702 -1.67893 79.689102
-8.0038004 -1.65018 79.696098
-7.8654399 -0.89916402 79.806099
-7.8383899 -0.92219001 79.8498
-7.6758599 -0.27045801 79.946999
-7.72789 -0.273011 79.865799
-7.44801 0.62917697 79.877998
-7.41679 0.64147401 80.086998
-7.1490102 1.63415 80.241203
-7.1974602 1.64306 79.9814
-6.9387598 2.6222701 80.382401
-7.0102501 2.7242401 80.163399
-6.8561001 3.09677 80.442596
-6.9641399 3.0577199 80.194901
-18.443701 8.0155001 74.623299
-15.9336 9.4113598 74.591499
-11.1157 9.0203304 74.369102
-7.08109 3.0448699 73.033699
-8.0171499 -2.62465 72.965599
-10.0675 -4.9317899 73.264297
-14.0732 -7.0332198 73.706398
-17.8967 -6.3502302 74.0317
-19.1714 -5.2939901 74.216904
-21.052099 -1.9273 73.836998
-6.5777402 5.4871302 80.737
-5.8509498 10.4466 87.0597
-6.0188599 9.8330898 85.258904
-6.1359801 9.42939 84.124702
-6.2974501 8.7739296 82.763901
-6.4397502 7.9211602 81.619904
-6.5052299 6.9662299 81.162498
-12.2922 -6.3062501 73.494499
-11.9429 -6.2358799 75.407303
-11.6487 -6.1238699 76.585403
-11.4047 -5.9442501 77.6418
-17.098801 -6.7246299 73.933098
-17.0786 -6.73141 76.143303
-17.014999 -6.64924 78.097397
-16.9266 -6.5504298 79.963997
-13.9338 9.7516603 76.020103
-13.9318 9.6494598 74.4776
-14.815 9.6308002 74.530502
-13.2662 9.5682297 74.463097
-6.6486101 4.6549602 80.623001
-6.6935501 4.2479 80.576103
-6.7743902 3.7039199 80.505699
-6.5857 5.24406 80.7015
-9.7195101 -5.9963398 87.267403
-9.1008501 -5.8848 84.922401
-10.578 -6.0313201 90.906998
-8.3442097 -3.51598 79.667198
-8.7110901 -4.4911699 80.239601
-8.9166899 -5.1265101 81.494499
-8.9162998 -5.6054902 83.234497
-7.92033 -1.72928 79.648697
-8.14326 -2.4577401 79.604698
-8.0006199 -2.62394 79.440903
-7.6140099 -0.25863099 80.0345
-7.7652998 -0.94538099 79.873497
-7.3558998 0.63560802 80.265297
-6.84654 2.5450201 80.5597
-7.0791402 1.5977499 80.436897
-6.5099702 5.16113 81.001198
-6.7185602 3.1175301 80.674896
-6.4941702 5.5575399 81.072899
-6.5478501 4.6767602 80.922997
-6.5794902 4.2685399 80.868301
-6.6314301 3.7248199 80.764503
-6.3929501 7.8099799 81.753502
-6.4524899 6.9060302 81.322502
-6.1333299 9.1823397 84.108299
-6.2662001 8.6490898 82.881302
-7.7026601 11.1171 96.393402
-7.7763801 10.7372 97.730904
-8.4867697 10.6001 98.181198
-7.7955298 10.8991 97.147797
-8.8439903 10.4823 98.482498
-6.00316 9.5733299 85.2061
-5.8305202 10.3047 87.028801
-5.7228999 11.4314 89.360901
-5.78968 11.5561 90.216698
-6.2906098 11.6864 92.052696
-5.9629002 11.6506 91.077797
-5.68045 11.1682 88.736099
-5.7541499 10.9243 87.955704
-5.7143602 10.7007 87.966698
-5.7385201 10.778 87.963898
-7.4251299 11.3563 95.307503
-6.9598799 11.562 93.864899
-10.7663 -5.6456199 78.564102
-9.76262 -4.9656801 78.098801
-11.0735 -5.8119798 78.731697
-9.8943396 -5.0236101 76.977898
-10.0089 -4.9928198 75.936203
-17.6038 -6.1257601 82.224403
-16.786699 -6.4272199 81.789497
-13.0392 -6.4657698 81.272697
-11.6849 -6.0733299 80.4907
-16.848 -6.3134298 83.309502
-15.8374 -6.6436901 82.767899
-10.5845 -5.5092702 79.755302
-18.593201 -5.4053102 84.551903
-17.4874 -6.0842099 83.692101
-15.7263 -6.4345598 84.254303
-14.2727 -6.4944601 83.331001
-13.6962 -6.3498602 84.343102
-14.4115 -6.2883801 84.9832
-12.4927 9.6752005 77.653603
-13.6937 9.9909201 77.727203
-14.9011 10.0147 77.764099
-15.8292 9.8659697 77.939903
-11.2709 9.0085001 77.585197
-7.8092198 4.2305198 78.015503
-8.9642496 6.02142 77.880203
-17.0814 9.1377602 76.581802
-18.320999 8.2160397 76.723396
-21.0819 3.61201 77.774498
-21.503799 1.7436 77.516602
-17.2735 9.09659 77.688904
-18.01 8.5846901 77.8955
-20.474501 5.1944599 77.964798
-19.033501 7.7103601 79.2519
-17.996901 8.7510405 78.757202
-17.278 9.2476301 78.429802
-12.44 9.7636003 78.002403
-13.658 10.1625 78.184196
-14.9009 10.3307 78.432899
-15.8934 10.1527 78.739601
-17.3053 9.5100899 79.424797
-11.2018 9.18682 77.956596
-9.9932003 7.9809899 77.988297
-8.9222403 6.49615 78.221802
-8.6219196 5.9180198 78.267097
-7.4713898 0.46760201 78.954399
-7.3011498 1.43466 78.7761
-7.2671599 2.5927801 78.629799
-7.6002698 4.0614901 78.463097
-7.7568698 4.46732 78.477699
-21.108299 3.5084701 80.171799
-21.4809 1.67501 80.020897
-10.1075 7.7232599 77.346703
-11.2793 8.9677496 77.32
-12.4911 9.6078796 77.397102
-13.7032 9.9473305 77.501602
-7.2751398 1.5545599 79.327103
-7.2133002 2.6571701 79.122002
-7.4039898 4.05615 78.827698
-12.2751 10.0801 78.473602
-13.5638 10.5027 78.750801
-14.8882 10.6429 79.050903
-15.9013 10.4585 79.404297
-11.0372 9.3148699 78.2015
-9.7922897 8.158 78.191299
-8.78405 7.0127301 78.389198
-8.2467499 6.0618501 78.506599
-7.7374101 4.9802499 78.659103
-20.072701 6.1489902 81.283096
-18.4909 8.6417503 80.710999
-21.292801 -0.44157499 81.809502
-20.5826 4.71243 82.474998
-21.329599 1.61323 82.208504
-20.213699 5.8069901 82.523499
-17.9564 9.3556995 81.236397
-20.6675 4.513 83.681198
-18.882299 8.3306704 82.826103
-19.8596 6.5613198 83.530998
-12.0193 10.4101 78.920097
-13.3711 10.9487 79.371696
-14.835 11.0888 79.8032
-15.8663 10.9022 80.2836
-10.8234 9.6183701 78.57
-9.5529699 8.5615196 78.565903
-8.5604 7.3998499 78.641502
-7.9678898 6.4236102 78.764702
-7.5848498 5.5655799 78.997704
-7.4426799 5.0341201 79.093399
-19.2139 7.85186 84.092697
-19.946199 6.41605 84.683502
-17.343201 10.294 81.9701
-21.1043 1.5784301 86.7239
-20.704599 4.4528098 86.465897
-17.9279 10.0168 83.448997
-18.7969 8.7875605 84.556297
-11.8375 10.9827 79.596001
-13.1437 11.5592 80.231796
-14.7742 11.7536 80.889801
-15.8044 11.5162 81.553398
-16.6371 11.1001 82.119598
-10.5579 10.1526 79.1539
-9.2958097 9.0062599 78.997398
-8.31318 7.9061499 79.052399
-7.69032 7.02424 79.221199
-7.4904499 6.4654398 79.3041
-20.3722 5.47437 86.186501
-19.983999 6.43151 85.826897
-17.294001 10.9638 83.739304
-17.8517 10.4062 84.390099
-18.312901 9.7937298 84.968697
-19.550301 7.4605198 86.471298
-20.319599 5.5061698 87.279602
-19.9436 6.50772 86.896004
-17.1901 11.3929 84.848198
-18.582899 9.4750004 86.573402
-19.000999 8.6440601 87.070602
-11.5069 11.6489 80.542999
-12.7326 12.2809 81.417999
-14.0625 12.5623 82.229401
-15.6642 12.2692 83.402901
-10.2397 10.7596 79.920799
-20.8216 1.73928 89.067497
-20.834499 0.21953399 88.918999
-8.9714098 9.6222601 79.665199
-7.98035 8.5494699 79.653999
-7.4630899 7.7115102 79.720901
-20.181299 5.6030798 88.342903
-19.8172 6.6619701 87.970398
-20.694401 3.3110399 88.890701
-20.7307 -0.80294901 88.502998
-16.9972 11.7794 86.008698
-19.200399 7.9565902 88.6408
-14.0818 13.4773 86.195099
-10.4445 13.7617 85.7845
-20.089399 -0.94303697 90.788902
-19.816099 -2.3038399 90.128098
-17.3992 10.4272 90.657097
-18.0098 9.4784803 90.856697
-19.7575 4.6532402 91.416603
-19.9839 3.26423 91.572403
-20.1607 1.7358201 91.553596
-20.2171 0.37260801 91.258202
-16.051701 12.3581 89.227798
-19.476801 5.9758701 91.244102
-9.9052496 13.8188 87.058998
-12.0665 13.8681 88.053299
-15.066 12.8526 89.718002
-8.7995596 13.486 86.566299
-7.70714 12.8985 86.097099
-5.9191198 9.9158497 86.124397
-6.0134802 11.0624 86.400002
-6.6273499 12.2055 86.809502
-5.9354601 10.4271 86.226601
-16.3452 11.3135 91.6782
-17.0707 10.4396 91.9403
-17.763901 9.5099201 92.069603
-12.6728 13.5798 89.760498
-13.7264 13.2308 90.288399
-15.6081 12.0803 91.250298
-7.4300299 12.8526 87.222
-8.4704905 13.4009 87.7369
-9.4988899 13.7311 88.257103
-19.2129 5.9703898 92.223297
-5.9404302 10.1072 86.1549
-14.3444 12.5636 91.771301
-15.2504 11.9578 92.215698
-8.11971 13.1721 88.810303
-9.1033297 13.5069 89.3526
-6.7761202 12.4184 89.101402
-12.8429 12.7594 92.4133
-13.9741 12.2946 92.7892
-8.6480799 13.1708 90.417397
-9.5816097 13.2963 90.9748
-7.6916699 12.8529 89.849403
-5.8635302 11.5702 88.959999
-6.33708 12.0974 89.601997
-5.7445202 11.3328 88.811897
-15.6561 10.8863 94.303703
-16.5518 10.1368 94.426102
-17.3482 9.2744999 94.449997
-17.987801 8.2712603 94.373901
-13.5496 11.9274 93.995796
-14.6843 11.4448 94.208397
-6.7249999 12.3512 90.012802
-18.9627 4.3951302 94.261101
-19.1768 2.9442699 94.234596
-18.7318 5.8405099 94.246902
-6.16327 11.8503 90.935097
-9.6863203 12.3196 93.831497
-10.708 12.1683 94.368698
-11.8605 11.9135 94.807198
-13.0765 11.5602 95.180298
-14.9975 10.3145 96.540398
-15.928 9.6447601 96.699898
-16.7675 8.8065004 96.736099
-17.3843 7.8792801 96.674797
-18.115601 5.7981901 96.400902
-12.512 11.2071 96.238297
-13.8627 10.8361 96.427002
-18.4063 4.44241 96.167503
-18.701401 2.95274 95.8069
-21.014099 3.23827 83.688797
-21.020901 3.3394101 82.448997
-20.8839 3.2693501 87.790497
-20.976999 3.22524 86.645599
-21.0072 3.2114401 85.151199
-20.2701 3.3422 90.579597
-20.518299 5.1477599 79.2808
-20.556 5.0736699 80.401604
-20.4779 4.5306401 88.651802
-20.465401 3.3550301 89.866096
-20.256901 4.60534 89.612297
-19.7456 5.8963399 90.2668
-19.1045 7.2449498 91.084801
-17.4576 6.7815599 97.504303
-17.8097 6.9148798 96.562302
-18.128799 7.0248299 95.518997
-19.616501 6.8649998 89.011597
-18.669001 7.23033 93.155098
-18.388 8.47048 92.112
-18.607201 8.4198399 90.950897
-19.3255 7.5160198 82.412003
-19.3729 7.5220799 83.287804
-19.5515 7.2441602 84.440697
-19.596399 7.3115702 85.454102
-18.909 8.2258797 89.734901
-19.4172 7.6816001 87.550301
-19.9266 6.4393101 80.519798
-19.8764 6.2998099 78.101196
-19.931299 6.3189201 79.363701
-19.780001 6.7206602 81.290604
-19.770599 6.7342 81.798401
-19.218 7.1563101 76.528198
-19.372299 7.3970399 80.638397
-19.4011 7.3227301 80.162804
-19.330799 7.4589701 81.136299
-19.393499 7.1914101 79.344902
-18.277901 9.3887901 89.790604
-19.2036 8.0810099 85.037498
-19.142799 8.3339796 86.007004
-18.7708 8.9560299 88.1334
-18.503599 9.2360096 89.053299
-17.750601 10.3043 89.552498
-18.8937 8.2268496 82.089897
-18.9065 8.1541595 81.486198
-18.846701 8.5202398 83.672401
-18.731199 9.1109104 85.501701
-18.0623 10.1041 88.608803
-18.9615 7.98528 80.513496
-18.9807 7.8893199 80.025597
-18.9217 8.0739698 80.983704
-18.344299 9.8252096 87.654503
-18.1646 10.1954 86.055298
-18.3918 9.4200697 84.028099
-17.274799 11.0837 89.200203
-18.515699 8.1017103 78.004501
-18.5347 8.2572403 79.028198
-18.514 8.4211502 79.7556
-18.428301 9.1474304 83.162201
-17.6378 10.8661 88.176903
-18.455601 8.8239202 81.667603
-18.469 8.7252798 81.155998
-18.4482 8.9687595 82.398697
-17.925699 10.5658 87.159798
-18.509001 8.5405102 80.279503
-17.209 11.5135 87.698601
-17.501101 11.2191 86.630997
-16.857901 11.7142 88.726501
-17.7159 10.827 85.489304
-16.179001 11.9278 90.356697
-16.4904 11.8614 89.671997
-17.9589 9.7363501 82.647003
-17.9617 9.5173998 81.861504
-17.9779 9.2306299 80.746002
-17.9865 9.0357704 79.915703
-17.9769 9.1333599 80.338303
-17.3335 10.0622 81.270103
-17.3249 9.8800001 80.656097
-17.3365 10.5894 82.813202
-16.7339 12.0702 87.150101
-17.3242 9.7278099 80.198898
-16.6653 10.0248 79.401299
-16.6499 9.8938198 79.042801
-16.613501 9.7659397 78.654503
-16.591299 9.6260004 78.172302
-16.6406 9.4444904 77.506302
-16.668301 10.3354 80.198601
-16.669201 10.1615 79.765701
-16.5914 11.4783 83.023102
-16.657301 10.5344 80.731796
-16.6362 10.7958 81.396301
-16.504999 11.8951 84.122704
-16.3339 12.2593 85.262604
-16.128099 12.5628 86.458298
-15.7975 12.7564 87.671997
-15.0046 13.1624 86.949402
-15.3213 12.9449 85.671898
-14.617 13.2919 88.086098
-11.1502 12.6484 93.229401
-10.3465 11.7348 95.315598
-14.9902 12.1361 81.870499
-14.6749 12.8567 83.778999
-14.8791 12.5157 82.810204
-14.3993 13.2034 84.954201
-13.1574 13.654 88.608498
-13.6285 13.6219 87.421501
-12.2041 13.4092 90.831299
-10.095 12.8161 92.730003
-10.6158 13.2659 91.497101
-12.9612 13.6353 85.429398
-12.519 13.8275 86.7714
-11.596 13.8049 89.266098
-8.6777296 12.3899 93.152901
-10.0789 13.6362 89.862396
-10.9324 13.9311 87.528702
-11.3045 13.8464 86.193604
-6.6396599 8.47334 81.282799
-6.0363302 11.8008 89.240303
-8.2153397 12.779 91.489899
-7.60812 11.9428 93.337799
-7.8263602 12.3202 92.486603
-9.0921402 11.4255 95.9095
-9.35993 11.8273 94.842796
-11.1237 11.3023 96.369904
-9.5708399 10.9596 97.322197
-9.7321501 11.1043 96.952202
-6.4331899 6.12746 81.397202
-6.4929199 6.1262298 81.140404
-7.1931801 6.6289001 79.774498
-6.8906202 6.4580302 80.150299
-6.67138 6.25032 80.567001
-6.5475998 6.1628499 80.904297
-7.9959602 11.4098 95.513901
-7.3483601 12.5779 90.784302
-7.5125098 11.662 94.151703
-8.2602196 11.7236 94.606598
-6.90976 11.8207 92.729897
-7.3936801 9.7933397 81.0905
-6.9452701 10.5613 82.546204
-6.5768099 11.1198 84.182899
-6.36624 11.5415 85.516403
-6.2245302 11.6414 86.581299
-6.1160998 11.6717 87.509399
-16.3165 -6.9523401 71.447197
-17.9095 -6.2741799 71.619202
-17.0483 -6.6504502 71.512398
-15.3443 -7.12883 71.409897
-13.1895 -6.7452302 71.310204
-14.1481 -7.0366201 71.365997
-11.3848 -5.72539 71.116699
-11.9636 -6.0683799 71.135002
-12.5153 -6.3943901 71.244598
-8.9502697 -3.7609 70.969902
-10.1903 -4.9414001 71.039703
-9.7330198 -4.5647998 71.023804
-19.1812 -5.2454801 71.740097
-20.317699 -3.66166 71.802399
-7.4151702 -1.18998 70.7826
-7.0186501 0.778292 70.818001
-7.0773201 2.82967 70.9589
-8.0171299 -2.5951099 70.826202
-7.5934701 4.8376899 71.156898
-20.9939 3.1080401 71.787598
-21.334299 1.4888999 71.866997
-20.589199 4.3066101 71.773697
-21.0986 -1.76072 71.828697
-21.400801 0.25237101 71.867599
-19.528601 6.46665 71.6717
-18.574699 7.7241402 71.876602
-20.0271 5.3100801 71.766701
-15.9466 9.2051601 71.999496
-17.2257 8.66922 71.971199
-13.818 9.4577599 71.990898
-12.2613 9.2671804 71.984596
-10.982 8.8143301 71.926498
-14.7436 9.4590597 71.999802
-13.1802 9.3481998 72.001999
-8.4776497 6.7842002 71.404198
-9.5753498 8.1213703 71.752098
-10.3583 -1.8619 45.926399
-9.8893204 -1.30264 46.0065
-8.4186497 0.072186999 46.367001
-8.8798399 -0.463442 46.257198
-9.9490299 4.2827601 47.265499
-9.3808699 3.9739201 47.178001
-8.0100298 1.81505 46.8041
-8.2393398 2.5304899 46.921501
-8.7036695 3.3132999 47.0303
-16.555401 4.1785102 48.538601
-16.3533 4.3552499 48.528301
-15.9922 4.6270299 48.598801
-15.5814 4.9970798 48.559299
-16.810801 3.9200599 48.616501
-17.040701 3.6578 48.651402
-16.962 -0.77409798 47.388699
-17.3158 0.52374297 47.793701
-17.5411 1.1931601 48.010399
-17.677299 2.05864 48.250702
-17.6236 2.7283001 48.487
-10.9242 4.9032898 47.614601
-11.8644 5.4159999 48.104099
-11.3605 5.1633902 47.880299
-13.4701 5.7783098 48.478802
-12.6142 5.6905799 48.298401
-12.6881 7.5075798 44.060299
-11.8353 7.24828 43.935699
-10.0399 4.4094601 46.9655
-10.2052 4.5720201 46.838501
-10.4353 4.7483902 46.855598
-15.4886 5.24963 47.866199
-15.2279 5.3193898 48.238098
-15.7524 4.94807 48.273499
-10.7118 -1.29199 44.469002
-8.3415298 2.7317801 45.583801
-8.77456 3.57391 45.8335
-8.8257399 3.8912599 44.6759
-8.4601202 3.0178299 44.3578
-9.5102396 5.6567402 43.306499
-9.4717798 4.7107501 45.0075
-10.0173 5.1750598 45.2309
-10.4748 6.48912 43.6422
-10.7527 5.68819 45.554699
-8.5734501 0.718575 44.958199
-8.6638403 1.19309 43.827702
-9.1381903 0.54761302 43.489899
-9.0230503 0.17526799 44.751301
-9.6995096 -0.0099820001 43.3284
-9.5840101 -0.34976599 44.558201
-10.0831 -0.77314401 44.491501
-8.4374199 0.98157799 45.075401
-9.65275 4.4396501 46.128399
-10.2276 4.90169 46.134998
-9.4807901 4.1466198 46.517799
-8.4013004 2.1732399 44.047901
-8.20222 1.9713399 45.386299
-8.30791 1.31987 45.198101
-12.2222 6.3740702 45.996799
-8.8053904 4.6041398 42.814201
-8.5331602 3.57129 42.356998
-9.2745104 0.88486302 42.316002
-8.8553104 1.4686 42.5681
-8.53304 2.35483 42.9361
-16.429399 4.4099698 48.094799
-14.3631 5.7263598 48.032001
-15.045 5.4652801 47.9468
-14.989 5.7181501 47.323601
-14.2905 5.9489598 47.328602
-14.2855 6.3963499 46.305599
-15.9864 4.7930498 48.168301
-15.9561 4.9607501 47.7794
-15.9326 5.0918798 47.516602
-15.8368 5.3601899 47.085899
-15.779 5.7761598 46.268398
-16.471001 4.5587001 47.6633
-16.501801 4.6641402 47.375198
-16.5837 4.8270998 46.948101
-16.664301 5.1851301 46.148201
-16.842699 4.08078 48.103901
-16.9429 4.2002501 47.557499
-17.051399 4.36585 46.905399
-17.080099 4.7423701 45.9981
-17.3918 3.7058101 47.4352
-17.3904 3.93413 46.769699
-17.355301 4.2687802 45.759998
-17.073299 3.8241301 48.118
-17.3813 3.4843099 48.0285
-17.105 -0.17750201 46.8204
-17.271299 0.90253502 45.810299
-17.2906 0.754655 46.466702
-17.277201 0.58240002 47.087898
-17.4373 1.84326 45.660999
-17.5019 1.38298 47.323399
-17.4634 1.5927 46.7202
-17.428801 1.75488 46.029099
-17.5947 2.28913 47.631802
-17.569201 2.4705701 47.026001
-17.567301 2.6591899 46.189499
-17.5198 3.7227499 45.327499
-17.5835 3.3296101 46.489399
-17.599199 3.1257701 47.272099
-17.590599 2.9414599 47.851398
-16.942301 5.8678002 44.016701
-15.8184 6.8183599 44.126301
-13.0803 6.5717902 46.181801
-14.1153 7.4409299 44.130901
-11.2808 5.2962899 47.268002
-10.7934 5.2286201 46.487301
-10.8094 4.9706402 47.1381
-11.9991 5.6177802 47.554798
-11.8514 5.83847 46.791401
-11.1213 5.4647498 46.577999
-13.25 6.1337199 47.138302
-13.3895 5.9044499 47.885799
-12.5557 5.8043399 47.6749
-12.4046 6.0074801 46.9482
-15.792 6.2883801 45.194
-14.1999 6.9204202 45.271702
-12.88 7.0106101 45.199501
-12.0326 6.7644901 45.0354
-10.6308 6.0460401 44.630299
-9.8360205 5.4140301 44.3675
-9.4519396 5.0299501 44.202801
-8.8493795 4.1644001 43.8564
-8.5588598 3.28093 43.390301
-16.731501 5.5451698 45.1721
-17.051701 5.1645298 45.153198
-9.4442596 -0.92978001 46.102501
-8.18542 0.56233799 46.475498
-8.0186195 1.04726 46.624199
-10.5397 4.63029 47.459202
-12.1038 5.5371099 48.174
-14.3891 5.6068101 48.618301
-14.9801 5.3564901 48.625999
-15.3181 5.1707602 48.635799
-17.3641 3.29353 48.659901
-17.227301 0.233825 47.698799
-17.061199 -0.32451299 47.530701
-7.8385401 1.90847 54.121498
-7.82307 2.1870601 56.182701
-8.4273901 3.2992301 55.455601
-8.4264097 3.05866 54.293098
-9.2536001 4.2811999 55.664101
-9.2081299 4.0716901 54.816799
-10.847 5.2604699 55.816399
-10.6307 5.02036 55.113201
-11.8621 5.6090398 55.876598
-11.6786 5.40976 55.218498
-12.2278 5.70679 55.893799
-12.22 5.5638299 55.2453
-13.1629 5.8742099 55.896
-13.1726 5.7393799 55.268799
-14.2478 5.86516 55.873001
-14.2682 5.69873 55.226898
-16.3636 4.93327 55.761101
-16.273399 4.7422299 55.070301
-17.3461 4.0485802 55.706699
-17.225599 3.9136801 55.025299
-17.9652 2.9203801 54.950699
-18.6598 2.0239 56.4711
-18.316099 1.9037 54.881901
-18.504801 3.4116199 58.0485
-18.8843 2.227 58.073799
-18.387501 3.21294 57.199799
-17.608601 4.4089398 57.184502
-17.761499 4.6353002 58.025299
-16.521999 5.3383498 57.166199
-16.606899 5.6018 57.9697
-14.2613 6.2536702 57.206799
-14.3048 6.4967999 57.969601
-13.1324 6.2218099 57.2043
-13.1366 6.4823799 58.0257
-12.1848 6.0290399 57.1889
-12.2217 6.2649798 57.993599
-11.1348 5.7178602 57.1898
-11.1792 5.9866099 58.0299
-9.2973404 4.66294 57.169399
-9.2642097 4.8782001 57.972198
-8.4223804 3.6649499 57.128799
-8.35748 3.8457699 57.953602
-7.7241702 2.3931601 57.852901
-7.4359198 2.76457 60.997398
-9.14779 5.24299 59.4067
-11.2142 6.37467 59.370098
-12.9359 6.8394198 59.290901
-14.4798 6.8952298 59.251801
-16.844801 5.9435401 59.275002
-17.9799 4.9576302 59.311401
-19.064699 3.1827099 60.793598
-19.1523 5.1619501 64.493896
-19.4842 4.35672 64.532204
-18.3888 5.6565599 62.4547
-18.6658 5.9425998 64.543198
-17.421101 6.6472201 62.4748
-17.7812 6.9636798 64.629097
-15.0543 7.8696399 62.530399
-15.4402 8.2688704 64.722801
-13.1605 7.8808599 62.5844
-13.3397 8.3762398 64.772499
-11.3508 7.4344902 62.650101
-11.565 7.9610701 64.779099
-9.0296202 6.0819802 62.714802
-9.05373 6.6032 64.8153
-8.03339 5.3342299 64.841599
-7.3193002 3.5561099 64.844704
-21.084101 0.83209002 68.693001
-20.762501 2.5859799 68.546303
-20.467699 3.4763701 68.443199
-20.0226 4.3638501 68.336601
-19.294901 6.1040902 68.0895
-19.729099 5.2983599 68.2118
-15.9332 -6.8137698 68.650002
-16.790501 -6.5187302 68.719803
-7.0525799 0.819516 67.958
-7.3893399 -0.93294698 67.989403
-15.8651 8.7905998 68.345596
-13.6904 9.0778103 68.389503
-8.2026396 6.1874499 68.140602
-9.2637596 7.4100199 68.2528
-9.8551102 -4.6402302 68.172203
-11.1897 -5.6623998 68.402802
-12.5726 -6.4492602 68.5541
-14.1248 -6.9493899 68.600899
-17.7855 -6.0587101 68.7705
-19.0895 -5.04002 68.819504
-8.5564404 -3.0364499 68.180298
-7.06774 2.52233 67.986504
-7.4650602 4.4937801 68.046997
-11.9981 8.7382002 68.390297
-10.6301 8.2569799 68.354202
-18.365999 7.2590299 68.258003
-20.9555 -1.53234 68.719498
-20.209999 -3.4345801 68.810799
-11.9826 -5.91185 57.696098
-10.8432 -5.6040001 57.432301
-11.3132 -5.6431298 56.292301
-11.8249 -5.5948501 55.431198
-12.4717 -5.7912598 56.5644
-12.3252 -5.63731 55.0396
-13.4094 -5.7884302 56.916801
-12.9424 -5.9737501 58.0345
-14.8143 -5.34832 53.053799
-14.6734 -5.3896799 54.718399
-13.6637 -5.7171102 53.680698
-13.7463 -5.7372799 52.7146
-12.5357 -5.68747 53.122601
-12.57 -5.7020302 52.3255
-11.5083 -5.22401 52.526501
-11.6443 -5.2286201 51.903
-10.7799 -4.58284 51.963402
-11.0215 -4.6554198 51.4039
-10.3489 -3.9412701 51.4953
-10.7032 -4.1483202 50.986
-13.5892 -5.6907401 54.801701
-14.2347 -5.62744 56.799599
-13.3139 -5.7282901 55.663898
-12.4713 -5.6517501 54.101101
-11.29 -5.19701 53.9627
-11.4076 -5.1899099 53.3032
-18.7775 4.2183599 60.7901
-18.7624 1.4802901 56.436699
-18.4177 1.2155401 54.835899
-18.192301 1.1587501 53.558899
-18.0965 1.88396 53.5882
-19.2698 2.2532401 60.822201
-19.511 1.49863 60.822601
-19.0977 1.21624 58.1712
-18.6761 -1.18643 56.401699
-18.530701 -0.84906602 55.630001
-18.825399 -0.645199 56.453098
-19.237499 -0.61857301 58.000301
