# .PCD v.7 - Point Cloud Data file format
VERSION .7
FIELDS x y z
SIZE 4 4 4
TYPE F F F
COUNT 1 1 1
WIDTH 1766
HEIGHT 1
VIEWPOINT 0 0 0 1 0 0 0
POINTS 1766
DATA ascii
-32.359798 86.5215 121.913
-32.208801 93.9664 115.934
-32.131001 97.240898 117.848
-33.480701 81.7491 133.21899
-32.659698 85.249397 125.948
-32.620399 91.778198 117.244
-32.703602 88.348099 122.112
-32.8428 98.026802 123.59
-32.518002 95.192703 118.272
-33.5238 77.277496 138.256
-32.780399 87.151604 124.276
-32.9916 85.448402 126.976
-32.983002 89.765297 122.264
-32.763802 96.917397 121.217
-32.866699 92.617798 118.737
-33.1581 91.615303 121.904
-33.121498 87.831902 126.438
-33.081299 89.113998 124.646
-33.781101 84.745796 132.94901
-33.157902 97.056801 130.468
-33.288799 96.792999 127.471
-33.038101 95.831802 133.534
-33.143501 92.590202 137.97099
-33.133701 94.188301 121.518
-33.8279 78.724701 138.037
-33.408798 88.107697 127.632
-33.348 95.585297 124.031
-33.299801 90.866501 124.836
-33.3922 90.276604 127.418
-33.412899 92.987198 124.506
-33.9189 86.738503 132.90199
-34.094898 81.168198 137.717
-33.473099 93.481903 133.37199
-33.520901 94.714996 130.44
-33.671902 89.457298 137.63499
-33.478298 92.303001 128.056
-33.634998 90.411003 128.36099
-33.5187 94.5019 127.684
-33.557499 92.540199 129.519
-33.941299 89.43 132.925
-33.641899 91.721397 133.173
-34.150799 83.735603 137.705
-34.144199 86.497803 137.56799
-9.3560896 98.907799 99.999199
-10.1981 99.112396 98.791199
-9.9215298 96.064903 99.912399
-10.457 93.591904 101.039
-10.7385 101.235 98.340103
-11.5778 90.908203 102.065
-10.9203 97.119301 97.695396
-11.2866 94.738197 98.516197
-11.1944 99.849098 96.839798
-11.6133 101.608 96.481499
-12.3581 92.456802 99.315002
-12.5573 104.728 96.198898
-13.3224 88.518501 102.672
-13.8339 90.358299 99.878197
-13.7421 106.031 96.139
-15.4193 86.5588 102.857
-14.2164 106.939 96.384804
-15.6687 88.639503 100.144
-14.7769 107.929 96.485497
-17.455099 85.142097 102.707
-17.4303 87.317398 100.076
-19.229601 84.238403 102.349
-19.421801 86.150101 100.144
-19.6231 86.656303 99.128899
-21.177299 83.722198 102.348
-21.2554 84.265297 101.673
-21.5235 85.186203 99.589302
-23.5879 85.1194 99.565903
-24.6759 108.461 97.621498
-26.0704 86.233002 99.651001
-26.2313 106.31 97.8414
-28.142099 88.780403 99.790497
-27.76 103.981 97.988503
-29.1203 92.587997 99.747803
-28.5651 101.681 98.367599
-29.0928 98.931198 98.889503
-29.3486 96.7174 99.305
-11.6942 97.984703 95.431099
-11.6833 95.632301 95.894897
-11.9094 100.432 94.838799
-12.3541 102.528 94.536697
-12.8637 93.627502 96.647797
-13.3076 105.266 94.4021
-12.4612 99.025902 93.141899
-11.9885 96.693298 93.287498
-12.7648 101.349 92.7108
-13.2961 103.579 92.454803
-12.6016 94.501198 93.661499
-14.2704 91.765999 97.146698
-14.1866 106.18 92.381897
-13.2168 100.081 90.836403
-12.4571 97.873703 90.732498
-13.6511 102.334 90.5243
-14.7282 106.84 94.257004
-14.1987 104.596 90.310699
-12.7773 95.580902 90.843498
-13.659 92.642601 93.994904
-14.9715 107.193 90.188301
-15.4838 107.685 92.141403
-14.3772 103.151 88.284401
-13.9113 101.075 88.454102
-12.9679 99.183403 88.091301
-13.0843 97.073402 87.852997
-14.864 105.382 88.013199
-14.9742 107.503 94.454803
-13.8283 93.323898 91.3507
-15.9224 89.963997 97.483704
-14.5664 102.419 85.630699
-15.0634 104.401 85.474098
-13.4895 100.732 85.164398
-16.113701 108.662 89.829399
-15.4903 107.998 87.663101
-13.4707 98.748398 84.725998
-14.7289 109.947 64.815002
-15.0371 111.408 65.534798
-15.2027 108.574 64.087402
-13.925 95.155403 87.797897
-15.4998 106.586 85.110802
-15.2878 112.993 66.165398
-14.5856 91.570503 93.922203
-15.1273 111.032 66.757698
-15.2924 112.615 67.330498
-15.0366 109.603 66.069801
-14.8999 110.553 67.766502
-15.1065 112.134 68.296799
-15.0431 109.645 69.1073
-15.3093 111.223 69.490601
-15.1227 108.186 68.669601
-15.0286 109.109 67.152496
-15.4365 108.281 65.368797
-15.5493 107.826 66.512901
-15.6566 106.848 68.268501
-14.6671 108.185 71.524803
-14.7563 106.567 71.106598
-15.4656 109.807 71.5877
-15.6846 106.1 81.909698
-15.0952 104.193 82.153801
-13.9776 102.552 81.800903
-15.6592 108.248 92.398697
-15.4902 108.491 94.713699
-13.9691 100.694 81.270599
-14.2878 96.901802 84.497498
-16.0383 109.112 84.697998
-15.4158 114.005 68.736198
-15.698 114.487 67.805
-15.5378 113.175 69.794502
-15.4699 114.934 66.739403
-15.5468 105.238 70.714699
-15.884 111.864 71.735001
-16.5026 109.522 87.133904
-16.289 107.436 63.451698
-16.007099 107.965 81.608498
-16.4681 107.169 64.746002
-14.1371 104.536 78.1745
-14.9324 106.364 78.411102
-15.9662 108.038 78.133598
-14.2588 102.716 77.667099
-14.555 104.702 74.200699
-14.405 106.455 74.670097
-15.0762 108.283 74.845398
-15.9791 116.465 67.280502
-16.136499 116.2 68.384598
-15.8489 115.991 69.354797
-15.9543 115.321 70.329002
-14.684 99.013901 80.810699
-16.524401 106.787 65.935898
-16.6057 105.846 67.794296
-16.0473 110.145 75.003601
-16.4058 110.3 81.219398
-14.9507 92.245598 90.421204
-14.9939 93.7845 87.531197
-15.431 90.818497 92.920303
-16.218201 114.367 71.835701
-16.278799 109.081 90.046898
-16.972099 110.541 84.032997
-16.2297 109.415 94.82
-16.0376 109.049 92.530899
-16.267099 109.342 77.830704
-16.571899 104.239 70.2939
-15.3666 103.312 73.7388
-15.0408 101.221 77.151398
-16.481001 113.137 74.115601
-16.4823 89.563599 95.5625
-16.5273 111.792 77.358902
-16.473 117.541 69.711304
-16.5641 117.608 68.739899
-16.563299 117.26 70.765198
-15.5699 95.081001 84.6334
-16.6938 117.741 67.6772
-16.797899 116.502 72.166298
-17.1849 111.735 80.520798
-17.0047 110.04 94.846603
-16.4156 109.61 92.493797
-16.4538 109.604 90.133698
-16.649401 109.945 87.360199
-17.964399 88.488297 97.757103
-17.6057 106.726 63.0145
-16.429399 102.259 73.276497
-17.334801 115.111 74.126801
-17.076 114.353 74.043098
-15.9174 97.711998 80.384399
-17.7477 106.503 64.379501
-17.149099 112.976 76.864601
-16.182199 100.071 76.631302
-16.7162 110.127 92.629402
-16.6287 110.127 90.222198
-17.628201 110.358 94.915604
-16.7796 110.636 87.706703
-17.7715 106.118 65.608704
-17.071199 119.055 69.9179
-16.9783 119.228 68.892303
-17.193399 118.768 70.999802
-17.7693 105.166 67.4319
-17.1014 110.952 84.294899
-17.7589 103.548 69.911003
-17.467199 118.042 72.407501
-17.0954 119.368 67.846901
-17.322901 111.178 90.376999
-16.836901 110.216 92.594704
-17.5023 110.749 92.684196
-17.350901 112.018 87.444603
-17.2041 111.634 84.708504
-15.9022 92.9972 87.261497
-16.011 91.366898 89.982002
-16.306999 90.325897 91.921501
-17.9891 110.54 94.890701
-17.6574 112.962 84.397102
-17.257 115.828 74.235001
-17.697201 117.075 74.462997
-18.479401 110.704 94.965599
-17.080601 89.201797 94.428902
-17.697901 101.55 72.817398
-17.3209 112.149 80.779198
-17.7735 120.349 69.0159
-17.847099 120.489 67.970596
-17.9625 120.106 70.058502
-17.404699 92.087196 86.861298
-17.3055 90.225403 90.398003
-17.4226 113.673 76.990196
-18.1098 119.654 71.144096
-17.4193 112.825 81.222504
-18.288099 88.594101 96.768501
-18.3263 118.825 72.578201
-17.7918 114.141 80.923798
-17.9251 88.662399 93.414497
-17.512199 114.348 77.404999
-17.799299 115.597 77.330597
-17.6117 99.337997 76.043602
-17.314699 94.416496 83.449303
-18.368 112.116 90.265602
-18.591299 111.391 92.800797
-18.525299 112.999 87.491402
-18.7006 113.943 84.416603
-17.487101 96.955399 79.602898
-18.642 88.003998 95.277702
-18.569099 117.752 74.645699
-18.926901 106.4 62.772099
-19.4526 111.028 95.114601
-19.0238 106.181 64.155701
-18.7584 115.103 81.0177
-18.713499 116.422 77.579803
-19.052099 105.75 65.435799
-19.042601 104.786 67.232903
-19.0562 103.158 69.622299
-19.1185 120.486 70.1129
-19.084101 120.831 69.134903
-19.083599 120.985 68.070999
-19.1001 101.169 72.3843
-19.182899 119.866 71.187302
-19.9813 87.130402 97.053101
-19.3214 119 72.633797
-19.459499 87.840401 93.736603
-19.487499 89.294899 89.9664
-19.4869 91.305901 86.327797
-19.2176 98.958504 75.376999
-19.527901 117.89 74.707397
-19.7013 111.675 92.872002
-19.6957 112.463 90.285599
-19.7698 113.342 87.490196
-19.375601 96.631104 78.668297
-19.383101 93.8908 82.595802
-19.8237 114.317 84.405403
-19.705 116.66 77.679001
-19.8032 115.424 81.053802
-20.2658 106.421 62.7075
-20.3253 106.136 64.088402
-20.3407 105.698 65.433403
-20.3412 104.713 67.221001
-20.3734 103.065 69.478699
-20.338499 120.673 67.990097
-20.5606 120.541 69.0242
-20.4613 120.194 70.028801
-20.4935 101.1 72.047302
-20.3214 119.553 71.115601
-20.296499 118.66 72.605202
-20.444401 117.586 74.684402
-20.8423 98.937798 74.681297
-21.2465 110.769 95.927803
-21.2509 111.519 92.830002
-21.9876 87.4981 93.321602
-21.7973 86.372299 96.788101
-20.6504 116.421 77.702698
-22.075899 88.995499 89.643501
-21.7111 96.967796 77.173103
-21.038 112.256 90.221703
-20.988001 113.079 87.450401
-20.768801 115.165 81.0494
-21.987499 90.982803 85.915199
-20.8964 114.079 84.381203
-21.8953 93.728699 81.793098
-21.018 119.761 67.790398
-21.6469 106.787 62.8204
-21.655701 106.465 64.206902
-21.1504 116.667 74.668098
-21.054501 117.691 72.518402
-21.1373 118.644 70.982697
-21.304501 119.267 69.867104
-21.6478 106.037 65.649399
-21.287201 119.622 68.859802
-21.606199 104.911 67.456497
-21.556499 103.217 69.520599
-21.4196 115.586 77.720001
-21.683901 101.249 71.916603
-21.687401 118.361 67.390503
-21.591299 114.395 81.077698
-21.9429 99.042702 74.421799
-21.8473 113.296 84.404404
-22.121901 112.282 87.443901
-22.3682 111.541 90.161003
-21.7554 118.139 68.530197
-22.809299 110.831 92.759102
-21.6486 117.08 70.731598
-21.5916 116.3 72.259903
-21.6866 115.443 74.503502
-21.7764 117.774 69.5728
-21.997999 114.574 77.704697
-23.0756 110.148 95.897301
-24.040001 86.281601 96.7771
-24.442801 87.840401 93.312798
-22.2806 113.515 81.085503
-22.8778 116.668 66.742104
-24.649799 89.426399 89.629204
-24.603001 91.444901 85.867401
-24.4433 94.202904 81.603203
-24.095301 97.514099 76.850502
-23.265301 99.440598 74.270897
-22.5996 112.31 84.459999
-22.228001 114.755 71.933197
-22.3111 115.238 70.300697
-22.2251 114.278 74.276001
-23.066401 107.639 63.121101
-23.0212 107.298 64.551399
-22.469101 115.762 69.024399
-22.9946 106.727 66.376099
-22.744499 105.116 68.146599
-22.5238 103.495 69.711601
-22.649599 116.234 67.9198
-22.5534 113.78 77.617104
-22.7318 101.583 71.895897
-23.1126 111.235 87.564796
-22.9932 112.712 81.087402
-23.6378 110.427 90.276299
-23.3881 111.369 84.596497
-23.064301 113.624 71.928101
-23.1355 113.938 70.002197
-23.0994 113.282 74.397697
-23.4363 114.367 68.591599
-24.400801 109.649 92.886398
-23.4345 112.933 77.584
-23.6451 114.715 67.317596
-24.0231 110.051 87.833801
-24.0154 114.991 66.074203
-23.933399 111.702 81.142502
-24.737101 108.752 96.036003
-23.0655 103.817 69.787399
-23.457701 102.041 71.872002
-23.468599 105.67 68.383904
-23.521099 104.349 69.931503
-23.9713 100.002 74.188698
-24.5874 110.164 84.7743
-24.3636 108.986 63.576801
-24.226299 108.616 65.0028
-24.076 108.042 66.796501
-24.1826 106.546 68.563301
-24.629999 109.009 90.5606
-23.973301 102.742 71.895897
-24.6812 101.345 73.988503
-25.7812 98.329002 77.662697
-26.468599 95.494797 81.999397
-26.3764 87.516899 97.022102
-23.882299 112.174 74.4189
-23.6597 112.811 71.916397
-23.732201 113.291 69.9422
-24.248301 105.287 70.084198
-23.808201 104.741 70.000999
-25.2684 108.611 88.141502
-23.932199 113.73 68.426498
-26.741199 89.185898 93.536201
-26.8204 92.914299 86.198303
-24.551001 111.277 77.649002
-24.250799 103.192 71.976601
-26.935101 90.889397 89.903503
-24.0758 114.126 67.098801
-25.5937 108.033 93.2136
-24.710699 103.798 72.1129
-25.2201 109.931 81.276199
-25.8295 107.389 90.905701
-25.448799 102.479 74.303299
-24.560499 105.631 70.163696
-25.059401 104.146 72.229698
-24.084299 111.984 71.795403
-24.123301 112.673 69.812798
-24.337299 113.042 68.222702
-26.126499 108.35 84.868401
-24.993099 106.202 70.275803
-24.511299 107.552 68.586998
-24.3923 111.026 74.409599
-24.425699 113.506 66.840897
-24.614201 114.032 65.502197
-25.662901 104.664 72.516998
-26.681499 99.998001 78.169601
-24.753401 109.792 66.948402
-24.9256 110.233 65.513397
-24.774099 109.164 68.608902
-25.159201 110.666 64.1418
-26.107 106.68 96.409401
-25.2484 109.784 77.716797
-26.305 103.161 75.154297
-25.395201 106.831 70.321701
-26.215 105.378 72.7771
-24.2265 111.333 71.672997
-24.297501 112.245 69.682297
-26.767799 106.75 88.302902
-26.7763 105.898 93.682999
-24.994301 113.307 65.146698
-24.7488 112.797 66.497498
-24.677099 112.345 67.898903
-25.5825 108.156 70.661598
-24.507601 111.756 69.457199
-24.575701 110.203 74.400902
-27.788 97.809601 82.455399
-24.4186 110.821 71.594002
-26.463699 106.673 73.312599
-26.847 103.762 75.626198
-25.233999 112.321 64.755997
-24.999001 111.813 66.124397
-24.887501 111.368 67.588699
-24.8909 109.69 74.326698
-27.3825 101.954 78.231102
-24.7166 111.199 69.254097
-26.1297 108.282 81.303497
-24.708099 110.336 71.4319
-24.7868 110.499 69.049599
-27.390499 105.41 91.212196
-25.6605 109.245 74.226501
-28.2859 95.490898 86.696297
-24.978701 109.524 71.140198
-27.2223 104.956 76.380096
-25.4849 108.892 77.672501
-28.314501 90.027901 97.283997
-28.5495 93.401001 90.335098
-26.1733 108.149 73.860703
-28.439301 91.707703 93.897598
-27.5364 104.35 96.723701
-27.2906 106.493 84.416603
-26.0287 108.419 77.536201
-27.7383 103.92 93.845596
-26.5432 107.847 77.409599
-27.0714 106.518 77.077698
-28.477301 100.918 82.546097
-26.372 107.446 81.114799
-27.968901 103.069 79.548302
-27.9716 104.523 88.278297
-26.876301 106.613 80.513199
-28.3186 102.851 91.461601
-28.2913 102.285 96.958298
-27.7236 104.823 80.588799
-29.0548 98.761497 87.148598
-29.1789 96.705704 90.849602
-27.956499 104.447 84.639503
-29.0833 95.117104 94.304802
-29.112101 93.636299 97.479103
-28.6124 101.155 94.393501
-28.374201 103.001 84.415398
-28.5359 102.114 87.630898
-28.8538 99.556999 97.393997
-28.8465 100.08 91.448898
-28.9853 98.527199 94.6549
-29.0762 97.333603 97.565399
-14.6198 112.086 62.284698
-14.4265 110.607 61.459999
-14.2546 110.232 63.306099
-14.4599 111.774 64.076698
-14.9407 108.816 62.5037
-14.8033 109.186 60.612
-15.0842 113.643 63.034698
-14.9037 113.398 64.7621
-14.7608 112.319 60.303699
-14.512 110.934 59.465698
-14.7486 109.577 58.586601
-15.2841 113.765 61.084499
-15.3631 115.279 65.389801
-15.6706 115.356 63.744099
-15.6495 113.765 59.057499
-15.0278 112.372 58.260601
-14.7264 111.142 57.366699
-15.8661 108.087 59.9272
-16.0959 107.717 61.8489
-14.8599 109.893 56.520599
-15.9417 115.299 61.865501
-15.6163 108.5 57.902401
-16.3461 115.23 59.834801
-15.9079 116.733 65.970802
-16.230499 116.685 64.3759
-15.7276 108.894 55.914101
-15.3408 111.338 55.2799
-15.661 112.516 56.113602
-15.631 110.23 54.615398
-16.135599 113.771 56.8671
-16.5751 116.543 62.501701
-16.296301 109.354 54.231602
-16.7232 115.183 57.626099
-16.8601 116.446 60.287899
-16.0075 111.537 53.283401
-16.251301 110.464 52.800499
-15.9574 112.682 53.912899
-16.856899 117.888 66.436996
-16.9715 117.853 64.873802
-16.290899 111.697 51.1297
-16.5179 110.622 50.7813
-16.3514 112.786 51.5938
-16.306601 113.865 54.5886
-16.4503 113.895 52.151901
-17.1635 107.397 59.5098
-17.472 106.978 61.406601
-16.848301 109.6 52.568401
-16.4044 111.928 48.508701
-16.437599 112.958 48.9076
-16.646099 110.906 48.209
-17.038401 107.784 57.4715
-16.650999 114.096 49.402599
-16.312599 112.142 35.232498
-16.380899 111.904 38.0005
-16.311701 113.138 38.1903
-16.2952 113.506 35.128502
-16.4736 114.338 38.445801
-16.4056 114.295 35.086201
-16.530199 113.789 42.4515
-16.3925 112.586 41.9375
-16.454201 111.538 41.590199
-17.075899 117.747 62.8489
-17.1238 116.336 57.992401
-16.7201 110.667 37.9548
-16.8771 110.375 41.367401
-16.568199 110.899 35.4188
-17.000099 108.245 55.5732
-16.3948 112.23 45.4561
-16.580299 111.251 45.144199
-16.4533 113.31 45.882099
-16.7192 115.116 55.209202
-16.809999 115.032 52.7337
-17.086901 109.735 50.6213
-17.0436 110.191 44.9533
-16.796801 115.217 38.7929
-16.8582 114.773 42.898899
-16.7395 115.444 35.046101
-16.705799 114.394 46.350201
-16.987 115.117 49.935699
-17.201599 110.03 48.055901
-17.321899 108.635 53.945599
-17.3277 117.568 60.582001
-17.092899 115.318 46.637699
-17.1807 115.573 43.064701
-17.169001 115.873 39.200298
-17.125299 116.109 35.5014
-17.2404 116.206 55.5532
-17.455799 119.429 66.701897
-17.347 116.097 52.967098
-17.639 109.746 41.367199
-17.461399 109.944 38.086601
-17.2848 110.088 35.728699
-17.4597 116.093 50.098301
-17.835899 109.567 44.926601
-17.6569 108.948 52.398399
-17.5909 119.321 65.152
-17.5667 117.347 58.217701
-17.532101 116.177 46.8465
-17.6413 119.012 63.090302
-17.578501 116.317 43.2766
-17.948999 109.157 50.514099
-17.575701 116.513 39.556801
-17.5478 116.84 35.936298
-18.021799 109.438 47.9776
-18.1695 120.49 66.814499
-17.849501 118.614 60.778702
-17.7316 117.124 55.7174
-17.8468 116.955 53.046101
-17.9275 116.88 50.120701
-18.592199 107.589 57.339199
-18.7071 107.16 59.336102
-18.821301 106.596 61.170601
-18.056999 118.231 58.355202
-18.268999 120.34 65.257599
-18.4618 108.009 55.4216
-17.9699 116.887 46.881599
-17.9848 116.954 43.3717
-17.965 117.073 39.784599
-17.921801 117.482 36.249298
-18.4214 109.502 38.2313
-18.5807 109.381 41.367901
-18.271 109.591 35.9883
-18.2167 117.888 55.790699
-18.317101 117.64 53.0541
-18.6448 108.382 53.878799
-18.322001 119.955 63.197601
-18.716299 109.213 44.899502
-18.369301 117.504 50.0849
-18.4634 119.416 60.882599
-17.531401 117.375 32.480701
-17.9231 117.96 33.1451
-18.188299 117.946 36.1973
-18.3106 117.666 39.7551
-18.812099 108.697 52.3685
-18.3671 117.482 43.366901
-18.383301 117.461 46.842098
-18.8507 109.059 48.035
-18.607599 118.928 58.441101
-18.9582 108.941 50.501598
-19.1241 120.965 66.827202
-18.540001 118.547 35.707298
-18.326 118.712 31.9079
-18.667 118.253 39.531101
-18.7206 118.492 55.8451
-18.782 118.174 53.0746
-18.742001 117.931 43.310398
-18.798901 117.991 50.078602
-18.7833 117.919 46.817001
-19.156601 120.818 65.252701
-19.0473 118.757 39.264198
-18.940001 119.1 35.193298
-18.7887 119.312 31.0431
-19.129299 120.382 63.185902
-19.128901 118.408 43.204498
-19.1611 119.835 60.887501
-19.2141 119.355 58.4701
-19.255301 118.898 55.888
-19.192499 118.263 46.839401
-19.2391 118.343 50.124901
-19.2631 118.547 53.1231
-19.148399 109.437 36.201599
-19.299101 109.332 38.345798
-19.427299 109.153 41.408901
-19.4512 119.123 39.012299
-19.365499 119.529 34.720402
-19.2701 119.721 30.3992
-19.603001 109.027 44.905399
-19.5394 118.719 43.1521
-20.090599 107.617 57.296398
-20.145201 107.163 59.294498
-20.182899 106.568 61.120098
-19.961201 108.062 55.386799
-19.776199 108.911 48.0271
-20.0019 108.44 53.873699
-20.0123 108.789 52.379902
-19.626699 118.473 46.923302
-19.922899 108.811 50.658901
-19.707001 118.53 50.2239
-20.046301 120.597 66.745499
-19.773701 118.718 53.1875
-19.987801 120.448 65.159302
-19.8214 119.055 55.897099
-19.8528 119.448 58.415199
-19.8827 119.808 60.783901
-19.9242 120.169 63.0494
-19.8729 119.224 38.782299
-19.806999 119.735 34.280399
-19.751301 119.866 29.9289
-19.972401 118.739 43.162899
-20.0867 118.464 47.041
-20.2038 118.462 50.3363
-20.290199 118.898 38.536701
-20.253201 119.633 33.805801
-20.218599 119.569 29.627501
-20.4098 118.307 43.251701
-20.367701 109.66 38.265099
-20.536301 109.514 41.3452
-20.186399 109.72 36.163601
-20.312201 118.59 53.222401
-20.5555 118.158 47.175598
-20.739401 109.426 44.8578
-20.410299 118.895 55.822399
-20.504801 119.189 58.2309
-20.9375 109.356 47.968102
-20.5951 119.428 60.565399
-20.714199 118.046 50.429901
-20.6078 119.462 62.732899
-21.1052 109.413 50.612099
-20.4279 119.587 64.8601
-20.596201 119.681 66.511902
-21.185801 109.138 52.399899
-21.3106 108.808 53.807098
-21.451599 108.399 55.347
-21.537201 107.903 57.304298
-20.860701 118.08 53.200401
-20.773399 117.434 42.9533
-20.6045 118.01 38.2388
-20.5886 118.693 33.6647
-21.5931 107.427 59.3564
-21.6189 107.095 61.226398
-21.003599 118.456 55.656399
-21.045799 116.508 42.517101
-20.872499 116.959 37.866501
-20.9396 117.51 33.571602
-21.1576 118.667 57.887001
-21.317101 118.639 60.053299
-20.9662 117.42 46.8755
-21.4153 118.426 62.2033
-21.280899 118.44 64.335098
-21.447901 118.408 66.044701
-21.3286 116.503 46.580898
-21.1738 117.184 50.083199
-21.229099 110.306 35.762901
-21.406 110.244 38.011299
-21.587999 110.084 41.247002
-21.770599 110.034 44.837898
-21.6026 116.136 49.7257
-21.360201 117.1 52.791801
-21.6236 116.122 37.634399
-21.698601 116.261 33.806099
-21.828199 115.669 42.132801
-21.9524 110.085 47.996601
-21.5868 117.504 55.123402
-21.807899 117.74 57.2509
-22.0863 117.675 59.325001
-22.4212 117.33 61.4286
-22.1068 110.114 50.593498
-21.912701 116.054 52.258701
-22.0578 115.725 46.153198
-22.312 109.861 52.352402
-22.192301 116.239 54.4618
-22.769501 117.155 63.540699
-22.644501 109.551 53.7869
-22.3799 116.513 56.518902
-22.945601 117 65.332703
-22.303101 115.459 49.370399
-22.983299 109.165 55.404301
-22.172001 111.041 37.7103
-22.3766 110.977 41.242298
-22.0014 111.097 35.234699
-23.0716 108.712 57.462002
-22.6616 116.486 58.596401
-22.5457 111.041 44.937901
-22.4597 113.915 41.705299
-22.280399 114.198 37.472198
-22.191601 114.193 34.242298
-23.020901 108.388 59.607601
-22.466801 115.306 51.836601
-23.0536 107.996 61.514198
-22.7108 111.102 48.112499
-22.5917 113.963 45.604599
-22.7889 115.525 54.0802
-22.561199 112.428 41.401699
-22.383801 112.577 37.555
-22.249001 112.538 34.727299
-23.210899 116.169 60.660999
-22.7787 111.127 50.728901
-22.692801 112.483 45.213501
-23.0763 110.948 52.503799
-22.714701 113.898 48.880299
-23.0704 115.687 55.987801
-22.8207 112.513 48.453098
-23.7913 115.753 62.686798
-23.6367 110.709 53.991501
-22.8498 113.875 51.231899
-23.4783 115.71 57.9426
-23.0662 114.64 53.760502
-22.999399 112.354 50.800999
-24.251301 110.391 55.696899
-23.430201 115.017 55.653198
-24.321699 110.114 57.896301
-24.126801 115.435 64.534798
-23.959801 115.46 60.052799
-23.325199 112.336 52.933201
-23.904699 115.145 57.555698
-23.0972 114.174 53.611099
-24.225201 109.752 60.041599
-23.739201 114.247 55.328701
-23.8937 112.274 54.534
-24.351299 109.366 61.963799
-24.1343 114.374 57.223801
-24.672701 112.164 56.313099
-24.369301 114.919 59.680199
-24.555401 114.998 62.123798
-24.623199 114.154 59.367401
-24.8666 111.974 58.527599
-24.929001 111.479 60.6488
-24.8983 114.364 61.777302
-24.8902 114.582 63.996899
-25.1665 111.086 62.5522
-24.9587 113.285 61.3381
-25.141899 113.831 63.6078
-25.2911 112.806 63.199799
-14.4454 111.774 23.419701
-14.4711 111.724 24.546801
-14.1693 113.203 23.260599
-14.1764 113.311 22.1325
-14.4879 114.613 20.262501
-14.4604 114.981 21.2318
-14.5709 113.112 24.4863
-14.9008 115.256 22.657499
-14.7292 111.746 25.6768
-14.3083 113.079 21.162399
-14.5466 111.811 22.3971
-14.6519 114.322 19.371401
-14.9469 113.927 18.618601
-14.5325 112.617 20.1364
-14.6917 111.413 21.261801
-15.3514 110.181 24.549
-15.3937 110.211 25.650499
-15.4711 110.403 26.732401
-15.3521 110.211 23.3985
-15.3518 116.104 18.963301
-15.6286 116.527 19.831499
-15.3497 115.772 18.1856
-15.2832 111.748 26.9974
-15.246 113.078 26.002199
-15.6882 115.359 24.4158
-15.5143 115.415 17.5748
-15.3102 110.062 22.3892
-15.2266 113.344 18.111099
-14.8216 112.143 19.4079
-15.0241 110.973 20.677
-15.8143 110.522 27.8542
-15.7761 115.019 17.0418
-15.5929 109.868 21.9772
-16.280399 117.111 21.6154
-15.9877 114.281 16.8929
-15.8444 112.91 27.752501
-15.867 111.575 28.509501
-16.092899 114.647 26.7271
-16.1982 110.482 29.030001
-16.6063 108.902 25.513599
-16.5529 108.906 24.378
-16.6728 109.019 26.6856
-16.3944 109.367 27.533501
-16.4811 108.788 23.438801
-16.565901 108.842 22.756599
-16.689699 117.068 17.5336
-16.8234 117.501 18.2882
-16.731701 116.674 16.965599
-16.556101 109.596 28.6833
-16.8673 116.296 16.5247
-16.7892 117.174 25.0383
-16.3349 115.932 25.8493
-17.123699 115.98 16.098301
-17.185801 118.188 19.8246
-16.526199 109.894 29.3995
-16.044701 112.527 29.8906
-16.220501 111.333 30.3727
-16.192301 114.148 29.368999
-16.850201 110.171 30.8985
-16.987 115.022 16.2738
-16.1597 112.274 32.488602
-16.3951 111.104 32.865601
-16.248899 113.937 32.257599
-16.508101 115.556 28.788601
-16.6012 115.269 31.899
-17.0879 110.196 33.3354
-17.5772 118.201 24.6213
-16.974899 116.906 28.4814
-17.3906 109.008 28.9949
-17.129101 108.861 27.898701
-18.000401 108.244 23.3195
-17.990601 108.165 24.089001
-17.964701 108.197 24.9842
-17.0481 116.429 32.013802
-16.840599 109.617 29.6348
-17.671 109.203 30.044701
-17.995899 108.246 26.103201
-18.067101 108.44 27.1875
-18.247999 108.564 28.2234
-17.784599 118.075 16.621201
-17.9946 118.584 17.3368
-17.948999 117.652 16.1113
-17.600201 118.002 29.146299
-18.1203 117.275 15.7603
-17.927799 109.53 31.611
-18.092699 109.631 33.731602
-18.186399 118.814 19.0361
-18.2614 116.903 15.5783
-18.0797 115.853 15.7827
-18.390499 108.788 29.231501
-18.349001 118.95 23.0023
-18.602699 109.128 30.251301
-18.018999 118.679 27.8908
-18.5856 119.203 26.768
-18.7862 109.388 31.8575
-18.312599 118.321 16.4771
-18.5804 118.872 17.1756
-18.4557 117.821 15.9979
-19.3305 108.085 24.133499
-19.3626 108.105 25.0923
-19.3885 108.158 26.280701
-19.265301 108.162 23.382799
-19.4368 108.429 27.2955
-18.885799 117.292 15.5715
-19.515301 108.702 28.2869
-18.958401 109.513 33.909901
-18.875 119.041 18.779699
-19.2283 116.115 15.807
-19.3365 116.976 15.6704
-19.570999 109.002 29.246201
-19.0189 119.306 22.357
-18.4767 118.502 16.2027
-18.604601 117.961 15.8096
-18.706301 119.065 16.812
-19.6063 109.334 30.3599
-19.1558 119.474 26.0655
-18.9655 117.489 15.4295
-18.814899 118.481 15.4501
-18.853901 118.135 15.2707
-18.784599 118.85 15.7356
-19.778 109.589 31.8864
-18.9711 119.226 17.8689
-19.077999 117.867 15.194
-18.997601 119.157 16.057301
-18.997 118.784 15.557
-19.021999 118.465 15.3197
-19.066099 119.024 15.7918
-19.039101 118.14 15.1822
-19.1408 117.915 15.135
-19.6838 119.063 18.753901
-19.607 119.245 17.8486
-19.6772 119.456 22.0879
-19.9785 109.753 33.940102
-19.7017 117.328 15.5655
-19.598499 117.519 15.4205
-19.5359 117.897 15.1827
-19.577999 119.195 16.0193
-19.492901 119.054 15.7639
-19.544201 118.825 15.532
-19.6001 118.504 15.3013
-19.5753 118.176 15.1658
-19.4823 117.944 15.122
-20.537901 108.68 23.0247
-19.708599 119.567 25.670401
-20.7141 108.678 23.673
-20.3279 115.484 16.053499
-20.341299 116.639 15.8107
-20.7129 108.715 24.6738
-20.718399 108.759 25.817301
-20.740601 109.037 26.8463
-20.600901 116.93 16.065399
-20.7479 109.319 27.8225
-20.730499 109.629 28.818701
-19.746799 118.17 15.2542
-19.719801 118.889 15.704
-20.741301 109.98 29.962799
-19.915199 118.021 15.7991
-19.7934 118.52 15.4276
-20.862499 110.189 31.5506
-20.093201 117.832 16.054501
-19.9095 119.075 16.828501
-20.237 119.305 25.4617
-20.318399 119.276 22.002199
-20.3764 118.847 19.0221
-20.060699 118.869 17.2435
-20.822701 117.351 16.4547
-20.702499 118.458 17.612
-20.003799 118.532 16.205
-21.0432 110.312 33.609901
-20.195999 118.338 16.525
-20.894899 117.843 16.967899
-21.1759 114.433 16.7729
-20.6071 118.698 29.539499
-20.6891 118.63 25.407301
-21.310699 115.433 16.461399
-21.0184 118.752 22.0068
-21.2768 118.212 19.9177
-21.6402 115.819 16.9042
-21.7917 109.745 22.418301
-21.750099 117.441 18.836399
-20.9991 117.338 29.7759
-21.0096 117.349 26.262699
-21.919201 109.739 22.9713
-21.6458 117.47 23.167801
-21.879499 116.329 17.3953
-21.8519 109.798 23.921301
-21.830601 109.839 24.996599
-21.8207 110.081 25.998899
-21.765699 110.337 26.9995
-21.6707 110.661 28.018999
-21.6201 111.002 29.133301
-21.9685 116.85 18.056601
-21.709999 111.12 30.801701
-21.8522 111.128 32.9198
-21.9095 113.398 18.178101
-21.8097 115.983 30.433201
-21.8741 115.976 27.492201
-22.0539 115.867 25.245701
-22.0387 117.116 21.6691
-22.167101 114.245 17.990801
-22.4676 114.78 18.291901
-22.5226 116.523 20.4634
-22.385599 110.799 21.737
-22.2924 112.614 19.402
-22.706301 115.285 18.7766
-22.123301 112.149 28.124901
-22.061001 112.45 29.6668
-22.2535 111.9 26.941999
-22.5849 110.948 22.187201
-22.148899 112.45 32.0868
-22.4779 111.611 25.826
-22.425501 115.402 24.0646
-22.144699 114.05 31.265699
-22.5702 111.144 22.949301
-22.5902 111.25 23.8619
-22.594999 111.405 24.8279
-22.7754 115.841 19.559999
-22.640301 113.353 19.5348
-22.1105 114.049 28.7465
-22.261 113.797 26.8806
-22.563499 111.687 20.702
-22.9506 113.739 20.037001
-22.563801 113.292 25.6919
-22.9949 114.984 22.867201
-22.797199 112.161 21.0756
-22.966499 112.969 24.480801
-23.181299 114.17 20.723499
-22.9487 112.609 21.736601
-23.0979 112.837 22.394699
-23.169201 112.878 23.3524
-23.2593 114.675 21.6759
-23.1957 108.67 11.3828
-24.4601 108.176 9.4401598
-24.3239 109.583 9.0307503
-23.061199 110.372 10.6461
-22.2852 111.014 12.0492
-22.4904 109.858 12.775
-23.128 107.801 11.7792
-24.3435 106.874 9.9394102
-22.541201 108.675 13.156
-22.806299 106.245 12.4517
-23.8617 105.65 10.4912
-22.311399 107.103 13.9154
-14.4722 108.519 10.4204
-14.3661 109.372 10.1503
-13.4037 108.336 8.7899799
-13.6097 107.238 9.13342
-14.3131 110.608 9.8857298
-13.3571 109.734 8.4777098
-14.9735 109.289 11.7193
-15.0432 111.236 11.3046
-14.8071 107.068 10.7329
-15.359 108.106 12.0666
-13.9861 105.915 9.5892801
-22.2528 105.268 12.9016
-23.2663 104.461 11.005
-21.823299 105.885 14.5305
-21.8524 104.814 13.0908
-22.5165 103.582 11.2504
-21.705601 102.831 11.4923
-21.1094 104.229 13.389
-20.8347 105.084 15.0038
-20.5721 103.998 13.4043
-20.792999 102.442 11.5935
-19.8489 102.223 11.7087
-19.5982 103.773 13.4652
-19.481899 104.769 15.0408
-14.5921 105.172 10.0183
-15.2842 106.255 11.1404
-15.6154 107.333 12.2769
-15.252 104.189 10.3456
-15.9967 103.426 10.6833
-16.4445 104.913 11.9334
-15.8725 105.601 11.5363
-16.021299 106.375 12.799
-16.605499 105.542 13.3903
-17.033701 104.49 12.2941
-16.921 102.772 11.0984
-17.9037 102.36 11.4763
-17.9807 103.954 13.0769
-18.0091 104.779 14.412
-18.877501 102.183 11.598
-19.0396 103.827 13.3575
-15.8851 102.444 9.5862598
-16.839899 101.999 9.7760696
-17.8526 101.784 9.9629297
-16.8423 101.82 9.3842402
-17.8542 101.638 9.5524397
-15.8891 102.242 9.2094097
-14.3842 103.96 9.0502796
-15.1033 103.08 9.3187304
-15.0917 102.862 8.9598503
-14.358 103.727 8.68641
-13.4408 106.208 8.2988501
-13.8079 104.776 8.70504
-13.7647 104.564 8.3283396
-13.3776 106.021 7.9224501
-13.0903 109.087 7.3720198
-13.1942 107.476 7.80509
-13.1215 107.328 7.4219699
-13.0121 108.941 6.9608798
-13.6626 113.382 6.3610001
-13.3203 111.396 6.7983899
-13.6777 111.853 7.8818798
-14.1186 113.812 7.6064801
-13.2417 111.316 6.3839502
-13.6068 113.308 5.8967199
-14.879 115.699 5.7779698
-14.7975 115.839 5.1996398
-15.2541 115.308 7.4804802
-16.3016 115.515 4.5419402
-16.3069 115.685 5.1251798
-16.320801 115.472 7.3805199
-17.7047 114.716 4.6565099
-17.747801 114.34 4.0073199
-17.4473 115.247 7.31429
-19.2866 115.07 7.14853
-19.248199 114.58 4.6659498
-19.266701 114.178 3.9558599
-20.7134 115.301 7.6425099
-20.764299 115.419 5.3576498
-20.785601 115.186 4.70191
-21.987 114.948 7.9246998
-22.371401 115.168 6.2098999
-22.4382 115.276 5.61024
-23.1835 113.124 8.21105
-23.9072 112.436 6.8783898
-23.9937 112.353 6.4728098
-25.009399 108.396 7.9191699
-24.5466 110.544 7.3171701
-23.806801 111.336 8.5609999
-24.6646 110.444 6.92729
-25.1469 108.273 7.5445299
-24.9396 105.729 8.7186699
-25.108101 107.07 8.32547
-25.2423 106.936 7.9472299
-25.071301 105.576 8.3292303
-23.7192 103.592 9.3962097
-24.3911 104.621 9.1012497
-24.492901 104.464 8.6985703
-23.7913 103.417 8.9901304
-21.910999 102.223 9.8340397
-22.840099 102.848 9.6188698
-22.8829 102.689 9.2213402
-21.9212 102.092 9.4322395
-19.910299 101.651 10.0603
-20.9266 101.841 9.9470501
-20.9296 101.712 9.5368605
-19.9044 101.532 9.6373796
-18.879601 101.607 10.0157
-18.877501 101.474 9.59799
-14.9984 112.924 9.4675303
-15.7398 113.958 9.5060797
-16.5835 114.341 9.5952196
-17.617001 114.434 9.59653
-19.3755 114.452 9.57584
-20.496401 114.196 9.6493902
-21.426701 113.689 9.7567101
-22.2101 112.417 10.0151
-21.649099 112.113 11.4572
-22.187201 109.738 14.2423
-22.258101 108.92 14.5953
-22.024 107.678 15.5584
-22.2048 109.693 16.9272
-21.9203 108.764 18.0285
-22.089701 110.331 16.622499
-22.092199 110.275 13.9038
-21.9531 110.838 16.0935
-21.750299 111.308 15.588
-21.8874 111.047 13.4603
-21.5508 106.652 16.4189
-21.4699 107.9 18.7882
-21.205099 111.99 14.767
-21.341101 111.976 12.9147
-20.9046 113.012 11.2613
-20.531099 107.341 19.443701
-20.634701 106.068 16.9993
-20.259701 112.894 14.2034
-20.4037 113.111 12.5057
-20.236099 113.493 11.1055
-19.3612 105.655 16.8855
-19.251699 106.934 19.386
-19.2621 113.787 11.118
-19.0991 113.464 13.9627
-19.196301 113.57 12.516
-17.8878 113.913 11.1407
-18.0056 105.603 16.2358
-17.9799 106.894 18.857
-17.9093 113.402 13.7892
-17.927401 113.605 12.4488
-16.8381 112.85 13.8375
-16.777599 113.262 12.1382
-16.9543 113.757 11.0193
-16.7157 106.025 15.0743
-16.7264 107.168 17.967699
-16.3055 113.384 10.9342
-16.041401 112.073 14.17
-15.9326 112.274 12.4397
-15.6152 112.651 10.9983
-16.0467 107.845 17.0536
-16.0093 106.957 14.2446
-15.663 110.997 14.7223
-15.512 111.044 12.7772
-15.84 107.801 13.7717
-15.9023 108.589 16.348801
-15.661 109.245 15.7797
-15.6124 108.602 13.4946
-15.5103 109.9 15.2795
-15.4168 109.505 13.1779
-15.1612 111.152 17.7215
-15.4725 110.335 18.7057
-15.4429 112.227 16.8923
-15.6498 109.905 19.088301
-15.8903 109.201 20.024401
-16.0529 113.062 15.9982
-16.6903 108.382 20.9011
-16.875999 113.892 15.6345
-17.982201 108.004 21.492001
-17.9974 114.495 15.5433
-19.24 107.945 21.6786
-19.179399 114.685 15.4884
-20.263599 114.066 15.8571
-20.506599 108.331 21.4643
-21.094801 113.108 16.582899
-21.5753 109.017 20.8524
-21.748699 112.365 17.6103
-22.142401 109.901 20.1329
-21.9601 111.924 18.354
-22.386801 110.734 19.3099
-22.142401 111.422 18.892799
-21.7829 102.166 9.0130701
-20.812201 101.782 9.1163702
-20.808201 101.728 8.9736004
-21.778299 102.115 8.8765602
-19.8085 101.604 9.20961
-19.803499 101.549 9.0617905
-23.6593 103.433 8.6013298
-22.746901 102.723 8.8218699
-22.747999 102.666 8.6916304
-23.6672 103.381 8.4699297
-24.930599 105.482 7.9865098
-24.3573 104.43 8.32866
-24.368799 104.385 8.1957302
-24.942101 105.436 7.8580098
-24.9592 108.147 7.2547598
-25.079399 106.828 7.6321402
-25.0872 106.787 7.50772
-24.967199 108.114 7.1322699
-23.7523 112.325 6.14256
-24.4464 110.354 6.6092801
-24.453899 110.311 6.4802999
-23.751699 112.283 6.0233002
-22.1672 114.914 5.0619602
-22.1931 114.99 5.1834102
-20.639999 114.579 4.0647502
-20.652201 114.71 4.2246599
-19.2314 113.529 3.46087
-19.2344 113.641 3.56774
-17.8225 113.711 3.5120599
-17.8123 113.812 3.61129
-16.4634 114.905 3.87782
-16.4431 115.016 4.01162
-15.0971 115.332 4.5378299
-15.0599 115.425 4.6522198
-13.9079 112.942 5.3439298
-13.8899 113.045 5.4624801
-13.2311 108.686 6.5806499
-13.4884 111.075 5.9717999
-13.4887 110.975 5.82827
-13.2211 108.589 6.4461999
-13.5865 105.847 7.5712099
-13.3316 107.136 7.0632701
-13.3231 107.04 6.9285598
-13.5796 105.749 7.4432502
-14.6116 103.669 8.2952404
-13.9905 104.452 7.9549799
-13.9904 104.368 7.8225598
-14.6186 103.595 8.1583595
-16.084801 102.269 8.7769403
-15.3131 102.841 8.5407
-15.3223 102.77 8.4022903
-16.094801 102.205 8.6301498
-17.8911 101.677 9.1108599
-16.9582 101.852 8.9482403
-16.9639 101.788 8.7993803
-17.892799 101.613 8.9610004
-18.848101 101.529 9.1640501
-18.846399 101.469 9.0150499
-15.8046 101.13 6.9068198
-16.7516 100.677 7.0413299
-17.765301 100.438 7.1533699
-14.1992 102.614 6.5213799
-14.9549 101.761 6.72858
-13.1062 104.837 5.9560699
-13.5504 103.525 6.2588301
-12.7792 107.926 5.1457901
-12.8468 106.232 5.5281801
-13.5855 112.334 4.2494102
-13.0639 110.027 4.5871401
-14.832 115.009 3.8624499
-16.290199 114.655 3.2285199
-17.765301 113.452 3.0323501
-19.2852 113.22 2.99631
-20.796499 114.244 3.3654101
-22.4594 114.408 4.0809202
-24.063601 111.851 4.8048701
-25.464701 107.696 5.73349
-24.9107 109.658 5.2053399
-25.4492 104.645 6.3726201
-25.617901 106.119 6.0510001
-24.1138 102.433 6.8200998
-24.8776 103.467 6.6248002
-22.104099 101.039 7.1119399
-23.1551 101.646 6.9822998
-19.907301 100.394 7.2326899
-21.0222 100.614 7.1824698
-18.828699 100.315 7.2051201
-25.227699 109.509 1.31422
-25.183599 109.389 0.81476903
-23.379 111.615 0.65770298
-23.429701 111.943 1.11804
-22.981199 111.932 0.77153498
-23.0235 112.244 1.26278
-21.7187 112.585 1.6196001
-21.759899 112.341 1.53587
-20.741501 112.062 1.6309
-20.268499 112.332 1.811
-18.5028 111.669 1.70661
-18.4746 112.056 1.8112
-16.708599 112.454 1.73234
-16.4056 112.018 1.54752
-15.6778 112.107 1.46584
-15.6588 112.502 1.56212
-14.5695 112.089 0.708534
-14.5266 112.526 1.16098
-14.0686 111.603 0.59934902
-14.021 112.121 1.0508699
-12.862 109.454 0.78577697
-12.8117 109.588 1.23893
-12.0107 105.395 1.34003
-12.3096 107.493 1.2882299
-12.3629 107.382 0.82076699
-12.0622 105.311 0.85514802
-12.2032 101.327 1.35188
-12.016 103.361 1.34442
-12.0492 103.255 0.85581303
-12.2112 101.196 0.85605001
-13.4357 98.5877 1.32113
-12.6932 99.862503 1.33781
-12.6775 99.726898 0.83335698
-13.396 98.446999 0.80805498
-15.2977 96.912598 1.28848
-14.2954 97.644699 1.30467
-14.2555 97.502502 0.78423297
-15.2566 96.767998 0.76034802
-17.571301 95.960403 1.2727799
-16.4016 96.331398 1.28012
-16.3755 96.169403 0.74759001
-17.561501 95.786301 0.73706102
-18.876301 95.592903 0.73723
-20.194401 95.606598 0.73897702
-20.1824 95.789803 1.28071
-18.875299 95.773003 1.2762001
-22.847 96.485703 1.3067
-21.559099 95.985802 1.29321
-21.584999 95.808998 0.75048602
-22.8878 96.310699 0.76186502
-25.192801 98.110397 1.33631
-24.1084 97.167503 1.3211401
-24.1483 96.991203 0.78102303
-25.234301 97.928398 0.79967302
-26.580099 101.046 1.31265
-26.030001 99.478798 1.33167
-26.062099 99.297203 0.80700701
-26.5851 100.871 0.79137701
-26.671301 105.263 1.35782
-26.8116 103.145 1.3524801
-26.7817 103.002 0.82669598
-26.6241 105.147 0.83875698
-26.0721 107.388 1.33604
-26.0257 107.269 0.82730901
-24.922001 109.138 0.49036199
-24.612101 108.899 0.487452
-22.9214 110.827 0.467401
-23.178499 111.217 0.34123099
-22.621901 111.097 0.46196499
-22.796101 111.504 0.463276
-21.7724 111.917 1.41539
-21.739799 111.431 1.26926
-21.045799 111.212 1.40087
-20.990999 111.691 1.49255
-18.660801 110.793 1.5133899
-18.5709 111.283 1.61285
-16.429399 111.556 1.44073
-16.534201 111.032 1.39105
-15.8761 111.18 1.3243001
-15.7704 111.734 1.41495
-14.9855 111.161 0.45084301
-14.7939 111.553 0.44014999
-14.6169 110.675 0.444271
-14.2308 111.157 0.366249
-13.4583 108.829 0.50036299
-13.0729 109.139 0.50444299
-12.3176 105.195 0.539626
-12.597 107.167 0.52305102
-13.0401 106.974 0.53131199
-12.8227 105.121 0.657951
-12.4751 101.259 0.51916099
-12.3078 103.227 0.52905101
-12.8088 103.287 0.69852102
-12.9649 101.468 0.65147698
-13.6172 98.614197 0.45811599
-12.92 99.841599 0.48993301
-13.3425 100.144 0.56961203
-13.9314 98.950203 0.47040901
-15.3976 96.997002 0.400785
-14.4361 97.700203 0.42918599
-14.7074 98.101097 0.43463001
-15.586 97.391098 0.40347201
-17.612 96.052597 0.37142301
-16.471901 96.419899 0.385878
-16.5903 96.802696 0.387243
-17.670601 96.415001 0.373377
-20.143499 95.880096 0.370157
-18.876301 95.864502 0.37035099
-18.881901 96.279999 0.372549
-20.0917 96.2743 0.37224299
-22.724199 96.550499 0.39297801
-21.478399 96.062698 0.38084
-21.3643 96.452797 0.38247699
-22.5368 96.951302 0.394131
-24.967501 98.092598 0.43405899
-23.933399 97.1922 0.41355801
-23.6663 97.586403 0.41381499
-24.632099 98.449303 0.43344799
-26.289 100.926 0.44532299
-25.7831 99.408096 0.454027
-25.430799 99.6679 0.45291901
-25.898701 101.112 0.448109
-26.308599 105.062 0.498772
-26.478701 102.986 0.48750499
-26.1054 103.059 0.48478699
-25.921101 105.028 0.495231
-25.736601 107.101 0.49558499
-25.3999 106.968 0.492055
-25.717699 101.219 0.96458101
-25.874201 103.074 1.04329
-25.738899 104.997 1.1282901
-21.2621 105.009 1.52798
-21.7731 105.976 1.4968899
-24.449699 98.653198 0.868608
-25.198099 99.814301 0.91041702
-20.8696 103.638 1.5610501
-22.422701 97.165901 0.82427102
-23.4673 97.819397 0.84235901
-20.6161 102.56 1.5637
-20.0466 96.557602 0.83671302
-21.245501 96.765999 0.82653999
-19.542101 100.783 1.43012
-17.7216 96.665802 0.86447698
-18.886499 96.504303 0.84596097
-17.7195 102.276 1.57311
-15.724 97.616203 0.93396598
-16.665501 97.039902 0.89351398
-17.4013 102.926 1.57681
-14.0998 99.082298 1.01063
-14.8166 98.254799 0.96512997
-17.2125 103.339 1.5690399
-13.1872 101.563 1.15403
-13.4812 100.281 1.07892
-16.876801 104.329 1.5561399
-13.1188 105.01 1.31201
-13.094 103.323 1.24252
-16.1595 105.351 1.52982
-13.7803 108.522 1.3737299
-13.319 106.8 1.35347
-15.3151 107.268 1.4983799
-14.7403 110.339 1.44119
-14.9786 109.936 1.42231
-15.0046 110.461 1.3794301
-15.2695 110.2 1.43071
-15.9134 110.715 1.34452
-15.843 109.979 1.33499
-16.5592 110.451 1.34927
-16.4503 109.626 1.22884
-18.747101 110.086 1.37379
-18.795799 109.115 1.19021
-21.159901 110.532 1.30986
-21.331301 109.634 1.21166
-21.8892 110.902 1.30521
-21.949499 109.954 1.3568799
-22.5585 110.581 1.35621
-22.3633 110.183 1.3681
-22.801399 110.397 1.37317
-22.6646 110 1.35778
-24.4282 108.703 1.2883
-22.5634 107.768 1.44037
-25.2409 106.838 1.20917
-21.202801 106.13 1.53504
-21.9664 107.699 1.47929
-20.4732 104.021 1.60399
-20.339899 103.152 1.61506
-19.299801 101.103 1.47966
-17.9758 102.773 1.62436
-17.641899 103.753 1.61283
-19.9622 103.579 1.1693799
-21.0483 107.786 1.15185
-19.1208 101.865 1.19108
-18.8403 107.837 1.15728
-18.2589 103.292 1.19102
-16.5611 107.743 1.2064101
-16.591101 105.754 1.55976
-15.755 107.506 1.5203
-14.1208 108.28 1.39895
-13.6767 106.767 1.38201
-13.4135 105.072 1.33961
-13.3231 103.43 1.2684799
-13.4552 101.81 1.19384
-13.6763 100.571 1.11924
-14.2344 99.327599 1.04493
-14.9447 98.537697 1.00483
-15.8067 97.948402 0.978899
-16.7416 97.4347 0.94775897
-17.731501 97.0411 0.915869
-18.9259 96.872299 0.89686501
-19.994699 96.875504 0.88171202
-21.206499 97.080498 0.870202
-22.3211 97.497101 0.86843598
-23.340099 98.193398 0.88554001
-24.264299 98.9842 0.898215
-24.9592 100.159 0.94582701
-25.4074 101.499 1.00423
-25.522301 103.219 1.0876
-25.351801 105.107 1.17263
-24.9221 106.737 1.24046
-24.0562 108.497 1.30299
-19.0506 104.11 1.16003
-16.068199 107.681 1.34123
-16.8291 105.857 1.34175
-17.7616 103.917 1.33778
-18.0648 102.954 1.33293
-19.260401 101.399 1.29986
-20.2185 103.339 1.30791
-20.330601 104.267 1.30764
-20.8643 106.108 1.29308
-21.507 107.719 1.26272
-18.8097 100.787 1.4395
-18.981199 101.084 1.4804699
-19.0126 101.382 1.30267
-17.1408 105.996 1.21358
-18.908701 106.406 1.16137
-20.5023 106.229 1.17103
-17.4998 109.274 1.20486
-17.617201 107.819 1.17401
-17.9664 106.22 1.1815
-19.7799 106.324 1.15907
-20.003201 107.808 1.1459301
-20.1453 109.227 1.17231
-17.9627 104.207 1.20435
-18.2852 104.9 1.18297
-18.9909 105.131 1.16433
-19.689899 105.047 1.16502
-20.098499 104.484 1.17672
-17.2369 104.867 1.58289
-17.4473 104.894 1.34007
-17.6625 104.972 1.21544
-20.2232 105.257 1.18169
-20.4734 105.232 1.3038501
-20.7215 105.24 1.56514
-20.368099 101.868 1.52763
-19.995399 101.164 1.46436
-20.2038 102.303 1.58816
-19.655899 101.489 1.52237
-19.5669 101.735 1.30203
-20.046 102.477 1.30419
-18.572901 102.491 1.17983
-18.3708 102.19 1.32372
-18.7416 101.649 1.31125
-18.376699 101.101 1.47653
-18.094601 101.657 1.53865
-18.6443 101.413 1.5237
-18.2873 102.039 1.59446
-19.735399 102.712 1.16488
-19.0916 103.352 1.15459
-19.5142 104.01 1.1581399
-19.3743 103.236 1.15203
-19.1049 102.847 1.15139
-18.837299 103.146 1.15947
-18.6113 103.88 1.17
-20.025499 110.224 1.34363
-19.877501 110.935 1.45732
-19.674 111.412 1.5721
-19.2999 111.774 1.67882
-17.7393 111.745 1.65292
-17.5518 111.337 1.54996
-17.531099 110.843 1.47394
-17.539301 110.187 1.37044
-23.469 108.213 1.3574899
-22.740601 106.318 1.43207
-24.0205 106.562 1.32867
-24.280199 105.309 1.29057
-22.848499 105.59 1.41838
-22.862801 103.761 1.38204
-24.1805 102.596 1.20153
-22.865101 104.762 1.4045399
-24.308399 104.077 1.2500401
-22.605301 102.838 1.3832
-23.7292 101.407 1.17032
-22.177099 101.934 1.36779
-23.221001 100.458 1.13703
-21.576 101.067 1.3430901
-22.4582 99.629601 1.11535
-21.674101 98.953003 1.0892299
-21.027 100.409 1.30932
-20.399099 99.802299 1.26653
-20.802799 98.441299 1.06844
-19.693001 99.480202 1.24729
-19.843901 98.177696 1.06454
-18.887199 98.1772 1.0779001
-18.848499 99.482002 1.25897
-17.9466 98.393997 1.1030999
-18.161699 99.747002 1.29012
-17.6437 100.248 1.3427401
-17.192699 98.841202 1.14552
-17.065701 100.793 1.38335
-16.436199 99.370102 1.18208
-16.575001 101.252 1.40258
-15.76 99.894096 1.2052799
-16.096901 101.86 1.4220099
-15.1668 100.601 1.23729
-15.7743 102.696 1.43944
-14.722 101.536 1.28284
-15.6185 103.593 1.4533401
-14.4152 102.633 1.32829
-15.5263 104.6 1.47802
-14.2766 103.923 1.378
-15.4216 105.283 1.48664
-14.2357 105.17 1.41278
-14.24 106.694 1.42665
-14.5228 108.002 1.4312201
-14.5361 99.914497 4.2233601
-15.46 99.213501 4.3375702
-16.505699 98.708298 4.43084
-17.6241 98.413498 4.4960599
-18.824499 98.273804 4.5371299
-20.0425 98.339302 4.5629001
-21.288099 98.6166 4.5545702
-22.495199 99.108002 4.53023
-23.6464 99.788399 4.4665699
-24.690701 100.644 4.3576198
-25.5291 101.752 4.2528901
-26.155199 103.034 4.0801101
-26.3249 104.741 3.88517
-26.164 106.554 3.67837
-25.567301 108.501 3.3984499
-24.692499 110.505 3.09817
-23.1056 113.113 2.70084
-21.5177 113.412 2.30304
-19.5721 112.504 2.3284299
-17.361799 112.767 2.34988
-15.5257 113.722 2.15731
-14.1179 113.4 2.4119699
-13.0408 110.677 2.7123699
-12.5202 108.628 3.0123301
-12.234 106.642 3.3046999
-12.3 104.827 3.5497301
-12.5529 103.292 3.7634799
-13.0291 101.851 3.94644
-13.7134 100.846 4.1004
34.094898 81.168198 137.717
34.150799 83.735603 137.705
33.480701 81.7491 133.21899
33.781101 84.745796 132.94901
33.9189 86.738503 132.90199
34.144199 86.497803 137.56799
33.941299 89.43 132.925
33.671902 89.457298 137.63499
33.641899 91.721397 133.173
33.036201 78.838303 133.927
33.8279 78.724701 138.037
33.557499 92.540199 129.519
33.634998 90.411003 128.36099
33.408798 88.107697 127.632
32.9916 85.448402 126.976
33.143501 92.590202 137.97099
32.528702 76.747398 134.411
33.5238 77.277496 138.256
32.4305 81.773003 127.628
33.038101 95.831802 133.534
33.473099 93.481903 133.37199
33.036701 75.440903 138.58099
33.520901 94.714996 130.44
33.478298 92.303001 128.056
33.3922 90.276604 127.418
33.121498 87.831902 126.438
32.541199 95.983704 138
33.5187 94.5019 127.684
31.9557 75.006401 134.86301
33.157902 97.056801 130.468
33.288799 96.792999 127.471
33.412899 92.987198 124.506
33.299801 90.866501 124.836
33.348 95.585297 124.031
31.6022 78.07 128.339
33.081299 89.113998 124.646
33.133701 94.188301 121.518
33.1581 91.615303 121.904
32.983002 89.765297 122.264
32.659698 85.249397 125.948
32.780399 87.151604 124.276
32.8428 98.026802 123.59
32.763802 96.917397 121.217
32.691601 99.0373 127.118
32.376598 73.911102 138.73801
32.703602 88.348099 122.112
32.4519 99.582298 130.61501
32.866699 92.617798 118.737
32.630901 90.232697 118.537
32.267601 88.488297 118.854
32.474899 98.193901 133.664
32.518002 95.192703 118.272
32.299 84.804604 124.078
32.359798 86.5215 121.913
31.2805 73.579903 135.12199
30.867001 75.545097 129.09399
31.4802 99.577202 138.388
32.038399 81.777298 126.393
32.047401 87.540298 118.863
31.816 72.477097 138.64799
32.620399 91.778198 117.244
32.208801 93.9664 115.934
31.884001 101.265 126.55
32.249802 99.976303 123.288
32.2747 98.854698 120.894
31.958401 84.374001 121.932
32.131001 97.240898 117.848
31.8041 85.974297 118.943
31.3332 102.472 130.229
31.638 81.711502 124.367
31.6646 88.343903 114.705
31.2778 87.190399 115.012
31.921801 90.0177 114.111
31.696301 92.2005 113.069
31.8792 100.207 133.614
30.219801 73.7687 129.65199
31.892799 95.2127 114.978
30.653601 103.223 133.539
31.229799 78.18 127.124
30.7889 72.279297 135.039
31.482201 84.0168 119.077
31.2854 81.584999 122.13
31.3729 102.44 122.941
31.559 101.258 120.609
31.5658 99.729599 117.463
31.1362 86.589104 115.152
30.743601 103.755 125.756
31.5156 93.052803 112.339
31.641701 98.001297 115.501
31.550699 96.231697 113.191
31.0662 85.520798 115.364
30.7724 78.152702 124.919
